ply
format ascii 1.0
element vertex 1755
property float x
property float y
property float z
end_header
0.407780 0.319529 3.043137
0.405265 0.315206 3.001961
0.403467 0.311500 2.966667
0.399180 0.305941 2.913726
-0.156224 0.337953 3.188236
-0.152376 0.336498 3.174510
-0.149202 0.336498 3.174510
-0.146027 0.336498 3.174510
-0.142588 0.335875 3.168628
-0.139247 0.335459 3.164706
-0.137431 0.338784 3.196079
-0.133494 0.336914 3.178432
-0.130637 0.337745 3.186275
-0.127294 0.337329 3.182353
-0.124112 0.337329 3.182353
-0.120929 0.337329 3.182353
-0.118255 0.338784 3.196078
-0.115482 0.340031 3.207843
-0.111863 0.338784 3.196078
-0.108867 0.339408 3.201961
-0.106118 0.340863 3.215686
-0.102337 0.338992 3.198039
-0.099018 0.338576 3.194118
-0.095529 0.337537 3.184314
-0.092175 0.336914 3.178432
-0.089216 0.337745 3.186275
-0.086029 0.337745 3.186275
-0.082843 0.337745 3.186275
-0.080441 0.341071 3.217647
-0.077224 0.341071 3.217647
-0.073825 0.340239 3.209804
-0.070486 0.339616 3.203922
-0.067282 0.339616 3.203922
-0.064078 0.339616 3.203922
-0.061098 0.340863 3.215686
-0.057671 0.339616 3.203922
-0.054567 0.340239 3.209804
-0.052016 0.344604 3.250980
-0.048588 0.343357 3.239216
-0.045239 0.342526 3.231373
-0.041524 0.338576 3.194118
-0.038000 0.335667 3.166667
-0.034057 0.328184 3.096078
-0.030804 0.326522 3.080392
-0.027476 0.323612 3.052941
-0.024471 0.324235 3.058823
-0.020629 0.312388 2.947059
-0.016835 0.297424 2.805882
-0.013618 0.288694 2.723529
-0.010761 0.285161 2.690196
-0.007765 0.274353 2.588235
-0.004937 0.261675 2.468627
-0.002422 0.256686 2.421569
0.000000 0.252322 2.380392
0.002347 0.248788 2.347059
0.004706 0.249412 2.352941
0.007165 0.253153 2.388235
0.009718 0.257518 2.429412
0.012412 0.263129 2.482353
0.015106 0.266871 2.517647
0.017706 0.268118 2.529412
0.020800 0.275600 2.600000
0.023135 0.272482 2.570588
0.026020 0.275808 2.601961
0.030412 0.293059 2.764706
0.032753 0.289318 2.729412
0.035865 0.292435 2.758824
0.038075 0.288278 2.719608
0.039706 0.280588 2.647059
0.043796 0.290149 2.737255
0.046067 0.287239 2.709804
0.048953 0.288278 2.719608
0.053386 0.297839 2.809804
0.057922 0.306984 2.896079
0.061518 0.310518 2.929412
0.064792 0.312180 2.945098
0.067602 0.311557 2.939216
0.070965 0.313427 2.956863
0.075098 0.318416 3.003922
0.077592 0.316337 2.984314
0.079359 0.311557 2.939216
0.081529 0.308647 2.911765
0.084214 0.307816 2.903922
0.090824 0.320910 3.027451
0.093790 0.320702 3.025490
0.093867 0.310933 2.933333
0.093047 0.298878 2.819608
0.093333 0.290980 2.745098
0.093059 0.281835 2.658824
0.088729 0.261259 2.464706
0.071388 0.204518 1.929412
0.068698 0.191631 1.807843
0.077924 0.211792 1.998039
0.093255 0.247126 2.331373
0.099204 0.256478 2.419608
0.099318 0.250659 2.364706
0.096876 0.238812 2.252941
0.096282 0.231953 2.188235
0.083294 0.196204 1.850981
0.092902 0.214078 2.019608
0.095198 0.214702 2.025490
0.081882 0.180824 1.705882
0.086471 0.187059 1.764706
0.101373 0.214910 2.027451
0.092600 0.192463 1.815686
0.087992 0.179369 1.692157
0.108182 0.216365 2.041177
0.112659 0.221145 2.086275
0.106010 0.204310 1.927451
0.124298 0.235278 2.219608
0.127524 0.237149 2.237255
0.141816 0.259180 2.445098
0.142525 0.256063 2.415686
0.158235 0.279549 2.637255
0.179173 0.311349 2.937255
0.184055 0.314675 2.968627
0.157624 0.265208 2.501961
0.150212 0.248788 2.347059
0.161480 0.263337 2.484314
0.175741 0.282251 2.662745
0.189833 0.300333 2.833333
0.202000 0.314882 2.970588
0.210924 0.324027 3.056863
0.221529 0.335459 3.164706
0.229567 0.342733 3.233333
0.235341 0.346475 3.268628
0.241616 0.350839 3.309804
0.246086 0.352502 3.325490
0.250441 0.353957 3.339216
0.254824 0.355412 3.352941
0.258780 0.356243 3.360784
0.262600 0.356867 3.366666
0.265037 0.355620 3.354902
0.268392 0.355620 3.354902
0.272224 0.356243 3.360784
0.273976 0.354165 3.341177
0.277806 0.354788 3.347059
0.280000 0.353333 3.333333
0.282167 0.351878 3.319608
0.285318 0.351671 3.317647
0.287271 0.350008 3.301961
0.291435 0.351047 3.311765
0.292304 0.348137 3.284314
0.294176 0.346474 3.268627
0.294412 0.342941 3.235294
0.294580 0.339408 3.201961
0.295229 0.336498 3.174510
0.298035 0.336082 3.170588
0.306049 0.341486 3.221569
0.308894 0.341071 3.217647
0.312492 0.341486 3.221569
0.315522 0.341278 3.219608
0.319129 0.341694 3.223529
0.321176 0.340447 3.211765
0.324388 0.340447 3.211765
0.326400 0.339200 3.200000
0.330408 0.340031 3.207843
0.336471 0.342941 3.235294
0.340529 0.343773 3.243137
0.344188 0.344188 3.247059
0.345967 0.342733 3.233334
0.347718 0.341278 3.219608
0.352006 0.342318 3.229412
0.357608 0.344604 3.250980
0.362382 0.346059 3.264706
0.367184 0.347514 3.278431
0.373343 0.350216 3.303922
0.376871 0.350424 3.305882
0.380853 0.351047 3.311765
0.382800 0.349800 3.300000
0.386100 0.349800 3.300000
0.390094 0.350424 3.305882
0.391767 0.348969 3.292157
0.394118 0.348137 3.284314
0.395741 0.346682 3.270588
0.395663 0.343773 3.243137
0.394806 0.340239 3.209804
0.395341 0.337953 3.188236
0.394118 0.334212 3.152941
0.395541 0.332757 3.139216
0.394696 0.329431 3.107843
0.387012 0.320494 3.023529
0.389782 0.320286 3.021569
0.405549 0.330678 3.119608
0.409953 0.331718 3.129412
0.410494 0.329639 3.109804
0.404737 0.322573 3.043137
0.401475 0.317584 2.996078
0.399706 0.313843 2.960784
0.396267 0.308855 2.913726
0.394614 0.305322 2.880392
-0.156992 0.342820 3.203922
-0.153694 0.342610 3.201961
-0.150216 0.341980 3.196079
-0.147561 0.343239 3.207843
-0.143559 0.341351 3.190196
-0.140369 0.341351 3.190196
-0.137010 0.340931 3.186275
-0.133659 0.340512 3.182353
-0.129351 0.337575 3.154902
-0.126510 0.338414 3.162745
-0.122659 0.336525 3.145098
-0.120706 0.339882 3.176470
-0.118618 0.343029 3.205882
-0.115624 0.343659 3.211765
-0.113029 0.345547 3.229412
-0.110000 0.346176 3.235294
-0.107024 0.347016 3.243137
-0.104031 0.347855 3.250980
-0.099686 0.344078 3.215686
-0.096353 0.343659 3.211765
-0.092686 0.341980 3.196079
-0.089490 0.341980 3.196079
-0.086665 0.343449 3.209804
-0.083455 0.343449 3.209804
-0.080539 0.344708 3.221569
-0.077176 0.344078 3.215686
-0.074231 0.345337 3.227451
-0.071263 0.346596 3.239216
-0.068024 0.346596 3.239216
-0.064784 0.346596 3.239216
-0.061545 0.346596 3.239216
-0.058306 0.346596 3.239216
-0.054533 0.343239 3.207843
-0.051702 0.345757 3.231373
-0.048647 0.347016 3.243137
-0.045624 0.348694 3.258824
-0.041727 0.343449 3.209804
-0.038118 0.339882 3.176470
-0.034833 0.338833 3.166667
-0.031196 0.333798 3.119608
-0.027371 0.325406 3.041177
-0.023937 0.320161 2.992157
-0.020506 0.313447 2.929412
-0.017235 0.307363 2.872549
-0.014206 0.304006 2.841177
-0.011153 0.298341 2.788235
-0.008200 0.292467 2.733333
-0.005435 0.290788 2.717647
-0.002671 0.285753 2.670588
0.000000 0.281557 2.631372
0.002578 0.275892 2.578431
0.005102 0.272955 2.550981
0.007512 0.267920 2.503922
0.009953 0.266241 2.488235
0.012176 0.260576 2.435294
0.014435 0.257429 2.405882
0.016649 0.254492 2.378431
0.018651 0.249457 2.331373
0.020841 0.247778 2.315686
0.022882 0.244841 2.288235
0.025214 0.245261 2.292157
0.027788 0.247778 2.315686
0.029951 0.246520 2.303922
0.032529 0.248618 2.323529
0.035059 0.250086 2.337255
0.037898 0.253443 2.368628
0.040433 0.254492 2.378432
0.042953 0.255331 2.386275
0.045488 0.256171 2.394118
0.047608 0.254702 2.380392
0.050894 0.259318 2.423529
0.054180 0.263514 2.462745
0.057455 0.267290 2.498039
0.061459 0.274004 2.560784
0.064559 0.276312 2.582353
0.067957 0.279669 2.613726
0.071259 0.282396 2.639216
0.074337 0.284075 2.654902
0.077731 0.286802 2.680392
0.082176 0.293096 2.739216
0.089961 0.310510 2.901961
0.095310 0.318692 2.978432
0.097253 0.315335 2.947059
0.099667 0.313657 2.931373
0.096216 0.294145 2.749020
0.097906 0.290998 2.719608
0.097724 0.282606 2.641177
0.080247 0.225959 2.111765
0.072800 0.199733 1.866667
0.078118 0.208965 1.952941
0.094220 0.245890 2.298039
0.101624 0.258898 2.419608
0.102188 0.254282 2.376471
0.094212 0.229106 2.141176
0.096971 0.230575 2.154902
0.096871 0.225329 2.105882
0.091973 0.209384 1.956863
0.083106 0.185257 1.731373
0.098865 0.215888 2.017647
0.114608 0.245261 2.292157
0.110000 0.230784 2.156863
0.081059 0.166794 1.558824
0.104233 0.210433 1.966667
0.115412 0.228686 2.137255
0.099971 0.194488 1.817647
0.111671 0.213371 1.994118
0.124841 0.234351 2.190196
0.143863 0.265402 2.480392
0.161729 0.293306 2.741177
0.177176 0.315965 2.952941
0.174867 0.306733 2.866667
0.153541 0.264982 2.476471
0.146876 0.249457 2.331372
0.160627 0.268549 2.509804
0.174990 0.288061 2.692157
0.187388 0.303796 2.839216
0.197716 0.315755 2.950980
0.208133 0.327504 3.060784
0.217418 0.337155 3.150980
0.224961 0.343869 3.213725
0.232073 0.349743 3.268628
0.237882 0.353520 3.303921
0.242188 0.354988 3.317647
0.247537 0.357925 3.345098
0.251471 0.358765 3.352941
0.254824 0.358765 3.352941
0.259233 0.360233 3.366666
0.262600 0.360233 3.366666
0.265502 0.359604 3.360784
0.268392 0.358975 3.354902
0.272224 0.359604 3.360784
0.275584 0.359604 3.360784
0.277806 0.358135 3.347059
0.281153 0.358135 3.347059
0.283833 0.357296 3.339216
0.284980 0.354569 3.313725
0.288124 0.354359 3.311765
0.291263 0.354149 3.309804
0.294747 0.354359 3.311765
0.297882 0.354149 3.309804
0.296553 0.348694 3.258823
0.298549 0.347225 3.245098
0.297600 0.342400 3.200000
0.298773 0.340092 3.178432
0.301578 0.339673 3.174510
0.306259 0.341351 3.190196
0.313633 0.345967 3.233333
0.320133 0.349533 3.266666
0.322624 0.348694 3.258823
0.327059 0.349953 3.270588
0.327953 0.347435 3.247059
0.331200 0.347435 3.247059
0.335861 0.348904 3.260784
0.338714 0.348484 3.256863
0.340941 0.347435 3.247059
0.343357 0.346596 3.239216
0.345757 0.345757 3.231373
0.348776 0.345547 3.229412
0.352861 0.346386 3.237255
0.359118 0.349324 3.264706
0.362600 0.349533 3.266666
0.368722 0.352261 3.292157
0.372014 0.352261 3.292157
0.376871 0.353729 3.305882
0.380853 0.354359 3.311765
0.383482 0.353729 3.305882
0.385871 0.352890 3.298039
0.388475 0.352261 3.292157
0.390133 0.350792 3.278431
0.390118 0.347855 3.250980
0.391708 0.346386 3.237255
0.391596 0.343449 3.209804
0.389018 0.338414 3.162745
0.387804 0.334637 3.127451
0.393137 0.336526 3.145098
0.391588 0.332539 3.107843
0.383988 0.323518 3.023529
0.389773 0.325826 3.045098
0.404706 0.335686 3.137255
0.407333 0.335267 3.133333
0.405843 0.331490 3.098039
0.400918 0.324986 3.037255
0.398478 0.320580 2.996078
0.395957 0.316175 2.954902
0.396000 0.313867 2.933333
0.393600 0.309671 2.894118
0.394345 0.307992 2.878431
-0.157953 0.348141 3.223529
-0.154447 0.347506 3.217647
-0.150584 0.346024 3.203922
-0.147380 0.346024 3.203922
-0.144176 0.346024 3.203922
-0.141318 0.346871 3.211765
-0.137853 0.346235 3.205882
-0.133000 0.342000 3.166667
-0.128708 0.339035 3.139216
-0.125412 0.338612 3.135294
-0.123041 0.340729 3.154902
-0.120110 0.341365 3.160784
-0.117820 0.343906 3.184314
-0.116824 0.350471 3.245098
-0.113990 0.351741 3.256863
-0.110133 0.349835 3.239216
-0.107541 0.351953 3.258824
-0.104094 0.351318 3.252941
-0.101449 0.353435 3.272549
-0.097176 0.349835 3.239216
-0.093653 0.348776 3.229412
-0.090588 0.349412 3.235294
-0.087882 0.351529 3.254902
-0.084322 0.350259 3.243137
-0.080931 0.349624 3.237255
-0.078024 0.351106 3.250980
-0.075314 0.353647 3.274510
-0.071478 0.350894 3.249020
-0.068229 0.350894 3.249020
-0.064980 0.350894 3.249020
-0.061508 0.349624 3.237255
-0.058482 0.350894 3.249020
-0.054800 0.348141 3.223529
-0.051765 0.349412 3.235294
-0.048588 0.349835 3.239216
-0.045349 0.349835 3.239216
-0.041778 0.347082 3.213725
-0.038541 0.346871 3.211765
-0.035157 0.345176 3.196079
-0.031549 0.340729 3.154902
-0.027988 0.335859 3.109804
-0.024643 0.332682 3.080392
-0.021220 0.327388 3.031373
-0.017906 0.322306 2.984314
-0.014745 0.318494 2.949020
-0.011686 0.315529 2.921569
-0.008641 0.311082 2.880392
-0.005718 0.308753 2.858824
-0.002843 0.307059 2.843137
0.000000 0.304094 2.815686
0.002788 0.301129 2.788235
0.005533 0.298800 2.766667
0.008218 0.295835 2.739216
0.010847 0.292871 2.711765
0.013422 0.289906 2.684314
0.015941 0.286941 2.656863
0.018310 0.282494 2.615686
0.020612 0.278259 2.576471
0.023012 0.276141 2.556863
0.025353 0.273812 2.535294
0.027953 0.274447 2.541176
0.030259 0.272329 2.521569
0.033035 0.274447 2.541176
0.035576 0.274447 2.541176
0.038235 0.275294 2.549020
0.040910 0.276141 2.556863
0.043800 0.278259 2.576471
0.046200 0.277200 2.566667
0.049027 0.278682 2.580392
0.052039 0.281012 2.601961
0.055053 0.283129 2.621569
0.058149 0.285459 2.643137
0.061424 0.288424 2.670588
0.064471 0.290118 2.686275
0.067353 0.290965 2.694118
0.070251 0.291812 2.701961
0.072953 0.291812 2.701961
0.075271 0.290329 2.688235
0.077618 0.289059 2.676471
0.078882 0.283976 2.629412
0.080296 0.279741 2.590196
0.083639 0.282282 2.613726
0.090653 0.296682 2.747059
0.097400 0.309388 2.864706
0.103765 0.320188 2.964706
0.103694 0.311082 2.880392
0.106284 0.310235 2.872549
0.105953 0.301129 2.788235
0.091535 0.253482 2.347059
0.076392 0.206259 1.909804
0.079427 0.209224 1.937255
0.090094 0.231671 2.145098
0.097720 0.245435 2.272549
0.102580 0.251788 2.331373
0.104118 0.249882 2.313726
0.106792 0.250729 2.321569
0.104045 0.239082 2.213726
0.101271 0.227859 2.109804
0.099153 0.218541 2.023530
0.101471 0.219176 2.029412
0.107900 0.228494 2.115686
0.100635 0.209012 1.935294
0.112755 0.229765 2.127451
0.113400 0.226800 2.100000
0.106765 0.209647 1.941177
0.112549 0.217059 2.009804
0.137359 0.260259 2.409804
0.159102 0.296259 2.743137
0.169133 0.309600 2.866667
0.162941 0.293294 2.715687
0.145084 0.256871 2.378432
0.145396 0.253271 2.345098
0.159724 0.273812 2.535294
0.172800 0.291600 2.700000
0.185696 0.308541 2.856863
0.196706 0.321882 2.980392
0.205861 0.331835 3.072549
0.213733 0.339459 3.143137
0.220800 0.345600 3.200000
0.227020 0.350259 3.243137
0.233604 0.355341 3.290196
0.238447 0.357671 3.311765
0.243190 0.359788 3.331372
0.247102 0.360635 3.339216
0.251912 0.362753 3.358823
0.255420 0.362965 3.360784
0.259233 0.363600 3.366666
0.262600 0.363600 3.366666
0.265037 0.362329 3.354902
0.268392 0.362329 3.354902
0.271747 0.362329 3.354902
0.275584 0.362965 3.360784
0.278457 0.362329 3.354902
0.280165 0.360212 3.335294
0.283500 0.360212 3.335294
0.286667 0.360000 3.333333
0.287782 0.357247 3.307843
0.292471 0.358941 3.323529
0.295620 0.358729 3.321569
0.297706 0.357247 3.307843
0.299765 0.355765 3.294118
0.299992 0.352165 3.260784
0.300882 0.349412 3.235294
0.302827 0.347929 3.221569
0.304559 0.346235 3.205882
0.304565 0.342635 3.172549
0.313253 0.348776 3.229412
0.320326 0.353012 3.268628
0.325147 0.354706 3.284314
0.330000 0.356400 3.300000
0.329537 0.352376 3.262745
0.334200 0.353859 3.276470
0.337476 0.353859 3.276470
0.339733 0.352800 3.266667
0.342177 0.351953 3.258824
0.341902 0.348353 3.225490
0.346176 0.349412 3.235294
0.350259 0.350259 3.243137
0.354998 0.351741 3.256863
0.361275 0.354706 3.284314
0.364559 0.354706 3.284314
0.368722 0.355553 3.292157
0.372678 0.356188 3.298039
0.377541 0.357671 3.311765
0.378598 0.355553 3.292157
0.381890 0.355553 3.292157
0.383576 0.354071 3.278431
0.385235 0.352588 3.264706
0.387567 0.351741 3.256863
0.387529 0.348776 3.229412
0.386726 0.345176 3.196079
0.386573 0.342212 3.168628
0.387571 0.340306 3.150980
0.389020 0.338824 3.137255
0.389216 0.336282 3.113725
0.379482 0.325271 3.011765
0.384984 0.327388 3.031373
0.402071 0.339247 3.141176
0.404959 0.339035 3.139216
0.400961 0.333106 3.084314
0.398651 0.328659 3.043137
0.393929 0.322306 2.984314
0.393002 0.319129 2.954902
0.389914 0.314259 2.909804
0.390706 0.312565 2.894118
0.389067 0.308965 2.860784
0.391659 0.308753 2.858824
-0.159010 0.353716 3.245098
-0.155106 0.352220 3.231373
-0.150676 0.349441 3.205882
-0.148012 0.350724 3.217647
-0.144265 0.349441 3.205882
-0.141922 0.351578 3.225490
-0.138190 0.350296 3.213725
-0.133576 0.346663 3.180392
-0.129512 0.344312 3.158823
-0.125961 0.343243 3.149020
-0.123806 0.346022 3.174510
-0.120631 0.346022 3.174510
-0.118400 0.348800 3.200000
-0.116894 0.353929 3.247059
-0.114059 0.355212 3.258824
-0.111000 0.355853 3.264706
-0.107606 0.355425 3.260784
-0.104784 0.356922 3.274510
-0.101692 0.357563 3.280392
-0.097941 0.355853 3.264706
-0.094051 0.353502 3.243137
-0.090808 0.353502 3.243137
-0.088253 0.356280 3.268627
-0.084373 0.353716 3.245098
-0.081176 0.353929 3.247059
-0.078212 0.355212 3.258823
-0.075088 0.355853 3.264706
-0.071565 0.354571 3.252941
-0.068312 0.354571 3.252941
-0.064941 0.353929 3.247059
-0.061545 0.353075 3.239216
-0.058518 0.354357 3.250980
-0.055167 0.353716 3.245098
-0.051984 0.354143 3.249020
-0.048735 0.354143 3.249020
-0.045129 0.351365 3.223529
-0.041957 0.351792 3.227451
-0.038706 0.351578 3.225490
-0.035459 0.351365 3.223529
-0.031902 0.347731 3.190196
-0.028571 0.346022 3.174510
-0.025129 0.342388 3.141176
-0.021796 0.339396 3.113725
-0.018518 0.336404 3.086275
-0.015294 0.333412 3.058824
-0.012149 0.331061 3.037255
-0.009047 0.328710 3.015686
-0.006004 0.327214 3.001961
-0.002980 0.324863 2.980392
0.000000 0.322726 2.960784
0.002939 0.320375 2.939216
0.005863 0.319520 2.931373
0.008712 0.316527 2.903922
0.011561 0.315031 2.890196
0.014284 0.311398 2.856863
0.017012 0.309047 2.835294
0.019751 0.307551 2.821569
0.022400 0.305200 2.800000
0.025129 0.304345 2.792157
0.027725 0.302208 2.772549
0.030412 0.301353 2.764706
0.033035 0.300071 2.752941
0.035865 0.300712 2.758824
0.038816 0.302208 2.772549
0.041324 0.300284 2.754902
0.044298 0.301780 2.768627
0.047300 0.303276 2.782353
0.050365 0.304986 2.798039
0.053312 0.305841 2.805882
0.056275 0.306696 2.813725
0.059418 0.308406 2.829412
0.062420 0.309261 2.837255
0.065437 0.310116 2.845098
0.068659 0.311825 2.860784
0.071716 0.312680 2.868628
0.074431 0.312039 2.862745
0.077294 0.312039 2.862745
0.079553 0.309688 2.841177
0.081769 0.307337 2.819608
0.082765 0.300712 2.758824
0.083761 0.294514 2.701961
0.084204 0.286820 2.631372
0.085412 0.282118 2.588235
0.087200 0.279553 2.564706
0.096902 0.301780 2.768627
0.105741 0.320161 2.937255
0.104833 0.308833 2.833333
0.107816 0.309261 2.837255
0.105759 0.295582 2.711765
0.094196 0.256684 2.354902
0.079347 0.210947 1.935294
0.077082 0.200047 1.835294
0.081869 0.207527 1.903922
0.100337 0.248563 2.280392
0.107382 0.260104 2.386275
0.109769 0.260104 2.386275
0.113629 0.263524 2.417647
0.114918 0.260959 2.394118
0.111643 0.248349 2.278431
0.109412 0.238518 2.188235
0.108600 0.232106 2.129412
0.106141 0.222488 2.041177
0.125953 0.259035 2.376471
0.115518 0.233175 2.139216
0.114206 0.226335 2.076471
0.124188 0.241724 2.217647
0.146076 0.279339 2.562745
0.145569 0.273569 2.509804
0.136163 0.251555 2.307843
0.135529 0.246212 2.258824
0.143051 0.255616 2.345098
0.156094 0.274424 2.517647
0.170841 0.295582 2.711765
0.182463 0.310757 2.850981
0.192961 0.323580 2.968627
0.201882 0.333412 3.058824
0.211773 0.344526 3.160784
0.218800 0.350724 3.217647
0.224994 0.355425 3.260784
0.229353 0.357135 3.276471
0.234161 0.359486 3.298039
0.239859 0.363120 3.331372
0.243763 0.363974 3.339216
0.248553 0.366112 3.358823
0.251471 0.365471 3.352941
0.255867 0.366967 3.366666
0.259233 0.366967 3.366666
0.262600 0.366967 3.366666
0.265502 0.366325 3.360784
0.268863 0.366325 3.360784
0.273335 0.367822 3.374510
0.275102 0.365684 3.354902
0.278457 0.365684 3.354902
0.281812 0.365684 3.354902
0.283500 0.363547 3.335294
0.287847 0.364829 3.347059
0.290000 0.363333 3.333333
0.294196 0.364402 3.343137
0.298586 0.365684 3.354902
0.299647 0.362906 3.329412
0.301192 0.360769 3.309804
0.303239 0.359273 3.296078
0.304165 0.356494 3.270588
0.304855 0.353502 3.243137
0.307912 0.353288 3.241176
0.308141 0.349869 3.209804
0.310400 0.348800 3.200000
0.315714 0.351151 3.221569
0.323400 0.356067 3.266667
0.329412 0.359059 3.294118
0.334488 0.360982 3.311765
0.337800 0.360982 3.311765
0.339294 0.359059 3.294118
0.340957 0.357349 3.278431
0.341353 0.354357 3.250980
0.342941 0.352647 3.235294
0.347016 0.353502 3.243137
0.352376 0.355639 3.262745
0.357135 0.357135 3.276471
0.361922 0.358631 3.290196
0.365429 0.358845 3.292157
0.369380 0.359486 3.298039
0.372014 0.358845 3.292157
0.374635 0.358204 3.286275
0.378598 0.358845 3.292157
0.380980 0.357990 3.284314
0.383347 0.357135 3.276471
0.383616 0.354357 3.250980
0.384300 0.352006 3.229412
0.382118 0.347090 3.184314
0.381743 0.343884 3.154902
0.382027 0.341320 3.131372
0.388053 0.343884 3.154902
0.382941 0.336618 3.088236
0.375490 0.327427 3.003922
0.382694 0.331061 3.037255
0.399676 0.343029 3.147059
0.401820 0.342175 3.139216
0.396359 0.334908 3.072549
0.393059 0.329565 3.023529
0.389918 0.324435 2.976470
0.387718 0.320161 2.937255
0.386743 0.316955 2.907843
0.387812 0.315459 2.894118
0.387000 0.312467 2.866667
0.392000 0.314176 2.882353
0.393808 0.313322 2.874510
-0.159490 0.358039 3.254902
-0.156424 0.358471 3.258823
-0.152243 0.356314 3.239216
-0.148102 0.354157 3.219608
-0.145412 0.355451 3.231373
-0.142525 0.356314 3.239216
-0.138527 0.354373 3.221569
-0.134647 0.352647 3.205882
-0.130798 0.350922 3.190196
-0.127686 0.351137 3.192157
-0.125029 0.352647 3.205882
-0.121600 0.352000 3.200000
-0.119343 0.354804 3.225490
-0.117812 0.359980 3.272549
-0.114539 0.359980 3.272549
-0.111467 0.360627 3.278431
-0.107865 0.359549 3.268628
-0.104220 0.358255 3.256863
-0.101024 0.358471 3.258823
-0.097824 0.358686 3.260784
-0.094392 0.358039 3.254902
-0.091192 0.358255 3.256863
-0.087618 0.356961 3.245098
-0.084424 0.357176 3.247059
-0.081176 0.357176 3.247059
-0.078071 0.357824 3.252941
-0.074547 0.356529 3.241176
-0.071306 0.356529 3.241176
-0.068476 0.358686 3.260784
-0.064824 0.356529 3.241176
-0.061694 0.357176 3.247059
-0.058553 0.357824 3.252941
-0.055400 0.358471 3.258823
-0.052110 0.358255 3.256863
-0.049029 0.359549 3.268627
-0.045486 0.357392 3.249020
-0.042135 0.356529 3.241176
-0.038824 0.355882 3.235294
-0.035631 0.356314 3.239216
-0.032118 0.353294 3.211765
-0.028835 0.352431 3.203922
-0.025522 0.350922 3.190196
-0.022222 0.349196 3.174510
-0.019000 0.348333 3.166667
-0.015667 0.344667 3.133333
-0.012549 0.345098 3.137255
-0.009353 0.342941 3.117647
-0.006220 0.342078 3.109804
-0.003096 0.340569 3.096079
0.000000 0.339706 3.088236
0.003055 0.336039 3.054902
0.006082 0.334529 3.041177
0.009082 0.333020 3.027451
0.012102 0.332804 3.025490
0.015059 0.331294 3.011765
0.017906 0.328275 2.984314
0.020794 0.326765 2.970588
0.023561 0.323961 2.945098
0.026488 0.323745 2.943137
0.029431 0.323745 2.943137
0.032288 0.322882 2.935294
0.035153 0.322235 2.929411
0.038082 0.322235 2.929411
0.041039 0.322451 2.931373
0.044353 0.325255 2.956863
0.047404 0.325902 2.962745
0.050300 0.325471 2.958824
0.053753 0.328490 2.986275
0.056888 0.329353 2.994118
0.059804 0.328922 2.990196
0.062465 0.327196 2.974510
0.065784 0.328922 2.990196
0.068955 0.329784 2.998039
0.072000 0.330000 3.000000
0.075490 0.332157 3.019608
0.078357 0.331510 3.013726
0.081000 0.330000 3.000000
0.083616 0.328490 2.986274
0.085976 0.326118 2.964706
0.087471 0.320726 2.915686
0.088684 0.314686 2.860784
0.089475 0.307569 2.796079
0.089294 0.297647 2.705882
0.087400 0.282765 2.570588
0.088255 0.277373 2.521569
0.094659 0.289235 2.629412
0.106937 0.317922 2.890196
0.108561 0.314255 2.856863
0.107594 0.303471 2.758824
0.105882 0.291176 2.647059
0.097355 0.261196 2.374510
0.080459 0.210726 1.915686
0.075714 0.193686 1.760784
0.085153 0.212882 1.935294
0.099794 0.243941 2.217647
0.101471 0.242647 2.205882
0.112247 0.262706 2.388235
0.115200 0.264000 2.400000
0.116159 0.260765 2.370588
0.123922 0.272627 2.478431
0.122400 0.264000 2.400000
0.107467 0.227333 2.066667
0.109222 0.226686 2.060784
0.119118 0.242647 2.205882
0.122186 0.244373 2.221569
0.140329 0.275647 2.505882
0.135794 0.262059 2.382353
0.119071 0.225824 2.052941
0.122396 0.228196 2.074510
0.140000 0.256667 2.333333
0.153696 0.277157 2.519608
0.167278 0.296784 2.698039
0.179488 0.313392 2.849020
0.189114 0.325039 2.954902
0.199206 0.337118 3.064706
0.207318 0.345529 3.141176
0.215057 0.353078 3.209804
0.221200 0.357824 3.252941
0.226482 0.361059 3.282353
0.231275 0.363431 3.303921
0.235971 0.365588 3.323529
0.240282 0.367098 3.337255
0.244622 0.368608 3.350980
0.248553 0.369471 3.358823
0.251471 0.368824 3.352941
0.254376 0.368176 3.347059
0.258327 0.369039 3.354902
0.262141 0.369686 3.360784
0.265502 0.369686 3.360784
0.268863 0.369686 3.360784
0.272859 0.370549 3.368628
0.276227 0.370549 3.368628
0.277969 0.368392 3.349020
0.281318 0.368392 3.349020
0.285167 0.369039 3.354902
0.287341 0.367529 3.341177
0.290682 0.367529 3.341177
0.293851 0.367314 3.339216
0.299808 0.370549 3.368628
0.301412 0.368392 3.349020
0.300835 0.363647 3.305882
0.305765 0.365588 3.323529
0.306718 0.362784 3.298039
0.309278 0.361922 3.290196
0.310147 0.359118 3.264706
0.313224 0.358902 3.262745
0.313824 0.355882 3.235294
0.315714 0.354373 3.221569
0.319324 0.354804 3.225490
0.325294 0.357824 3.252941
0.335082 0.364941 3.317647
0.338800 0.365373 3.321569
0.341112 0.364294 3.311765
0.338918 0.358471 3.258823
0.340529 0.356745 3.243137
0.344604 0.357608 3.250980
0.349324 0.359118 3.264706
0.354071 0.360627 3.278431
0.357349 0.360627 3.278431
0.362137 0.362137 3.292157
0.364776 0.361490 3.286275
0.368063 0.361490 3.286275
0.372014 0.362137 3.292157
0.375306 0.362137 3.292157
0.377020 0.360627 3.278431
0.378706 0.359118 3.264706
0.380365 0.357608 3.250980
0.381071 0.355235 3.229412
0.380333 0.351569 3.196079
0.379294 0.347686 3.160784
0.381743 0.347039 3.154902
0.383224 0.345529 3.141176
0.382024 0.341647 3.105882
0.372486 0.330431 3.003922
0.380147 0.334529 3.041177
0.395541 0.345314 3.139216
0.396937 0.343804 3.125490
0.394792 0.339275 3.084314
0.390794 0.333235 3.029412
0.388471 0.328706 2.988235
0.388633 0.326333 2.966667
0.385388 0.321157 2.919608
0.384918 0.318353 2.894118
0.384922 0.315980 2.872549
0.387529 0.315765 2.870588
0.390933 0.316196 2.874510
0.392733 0.315333 2.866667
-0.159298 0.360859 3.250980
-0.156518 0.361947 3.260784
-0.152888 0.361076 3.252941
-0.149635 0.361076 3.252941
-0.146382 0.361076 3.252941
-0.142871 0.360424 3.247059
-0.139624 0.360424 3.247059
-0.135718 0.358682 3.231373
-0.131843 0.356941 3.215686
-0.128706 0.357159 3.217647
-0.125029 0.355853 3.205882
-0.122122 0.356724 3.213725
-0.119343 0.358029 3.225490
-0.117882 0.363471 3.274510
-0.115225 0.365429 3.292157
-0.111933 0.365429 3.292157
-0.108059 0.363471 3.274510
-0.104659 0.363035 3.270588
-0.100841 0.361076 3.252941
-0.097471 0.360641 3.249020
-0.093710 0.358682 3.231373
-0.090863 0.360206 3.245098
-0.087618 0.360206 3.245098
-0.084220 0.359553 3.239216
-0.080980 0.359553 3.239216
-0.077929 0.360424 3.247059
-0.074682 0.360424 3.247059
-0.071435 0.360424 3.247059
-0.068600 0.362600 3.266666
-0.065451 0.363253 3.272549
-0.062067 0.362600 3.266666
-0.058800 0.362600 3.266666
-0.055600 0.363035 3.270588
-0.052424 0.363688 3.276471
-0.048941 0.362165 3.262745
-0.045843 0.363471 3.274510
-0.042467 0.362600 3.266666
-0.039200 0.362600 3.266666
-0.035847 0.361729 3.258823
-0.032451 0.360206 3.245098
-0.029135 0.359335 3.237255
-0.025882 0.359118 3.235294
-0.022510 0.356941 3.215686
-0.019247 0.356071 3.207843
-0.015941 0.353894 3.188235
-0.012745 0.353676 3.186275
-0.009535 0.352806 3.178432
-0.006329 0.351282 3.164706
-0.003157 0.350412 3.156863
0.000000 0.349759 3.150980
0.003131 0.347582 3.131373
0.006247 0.346712 3.123529
0.009347 0.345841 3.115686
0.012463 0.345841 3.115686
0.015510 0.344318 3.101961
0.018529 0.342794 3.088236
0.021522 0.341271 3.074510
0.024486 0.339747 3.060784
0.027494 0.339094 3.054902
0.030471 0.338224 3.047059
0.033518 0.338224 3.047059
0.036565 0.338224 3.047059
0.039612 0.338224 3.047059
0.042851 0.339747 3.060784
0.046118 0.341271 3.074510
0.049224 0.341488 3.076471
0.052633 0.343665 3.096079
0.055871 0.344535 3.103922
0.059012 0.344753 3.105882
0.062431 0.346494 3.121569
0.065347 0.345406 3.111765
0.068373 0.344971 3.107843
0.071661 0.345841 3.115686
0.075106 0.347365 3.129412
0.078235 0.347365 3.129412
0.081212 0.346712 3.123529
0.084335 0.346712 3.123529
0.087239 0.345841 3.115686
0.089559 0.342794 3.088235
0.091412 0.338224 3.047059
0.093122 0.333435 3.003922
0.092925 0.322335 2.903922
0.093694 0.315153 2.839216
0.092133 0.300788 2.709804
0.091343 0.289688 2.609804
0.090635 0.279459 2.517647
0.096418 0.289253 2.605882
0.110424 0.322553 2.905883
0.113176 0.322118 2.901961
0.110431 0.306447 2.760784
0.109173 0.295565 2.662745
0.102859 0.271841 2.449019
0.082459 0.212859 1.917647
0.081702 0.206112 1.856863
0.087000 0.214600 1.933333
0.101020 0.243765 2.196079
0.096488 0.227876 2.052941
0.103812 0.240065 2.162745
0.108280 0.245288 2.209804
0.127549 0.283159 2.550981
0.122400 0.266400 2.400000
0.112973 0.241153 2.172549
0.115457 0.241806 2.178432
0.128435 0.264006 2.378431
0.134588 0.271624 2.447059
0.150102 0.297524 2.680392
0.142835 0.278153 2.505882
0.121914 0.233318 2.101961
0.132345 0.248988 2.243137
0.146941 0.271841 2.449019
0.161112 0.293171 2.641177
0.173965 0.311453 2.805882
0.184800 0.325600 2.933333
0.194384 0.337135 3.037255
0.203667 0.347800 3.133333
0.211329 0.355418 3.201961
0.217422 0.360206 3.245098
0.222667 0.363471 3.274510
0.227024 0.365212 3.290196
0.231275 0.366735 3.303921
0.236388 0.369565 3.329412
0.240282 0.370435 3.337255
0.244622 0.371959 3.350980
0.247537 0.371306 3.345098
0.251471 0.372176 3.352941
0.254376 0.371523 3.347059
0.257724 0.371523 3.347059
0.262141 0.373047 3.360784
0.265502 0.373047 3.360784
0.268863 0.373047 3.360784
0.272224 0.373047 3.360784
0.275102 0.372394 3.354902
0.277969 0.371741 3.349020
0.282306 0.373047 3.360784
0.285167 0.372394 3.354902
0.288522 0.372394 3.354902
0.290171 0.370218 3.335294
0.294541 0.371523 3.347059
0.296667 0.370000 3.333333
0.303176 0.373918 3.368628
0.304225 0.371088 3.343137
0.306486 0.369782 3.331372
0.308541 0.368259 3.317647
0.311306 0.367606 3.311765
0.312755 0.365429 3.292157
0.315859 0.365212 3.290196
0.318388 0.364341 3.282353
0.319749 0.362165 3.262745
0.322818 0.361947 3.260784
0.323529 0.359118 3.235294
0.332112 0.364994 3.288235
0.337600 0.367388 3.309804
0.339092 0.365429 3.292157
0.337490 0.360206 3.245098
0.341559 0.361076 3.252941
0.344812 0.361076 3.252941
0.350163 0.363253 3.272549
0.356188 0.366082 3.298039
0.359486 0.366082 3.298039
0.362137 0.365429 3.292157
0.365429 0.365429 3.292157
0.366745 0.363471 3.274510
0.372014 0.365429 3.292157
0.375082 0.365212 3.290196
0.376118 0.363035 3.270588
0.376204 0.359988 3.243137
0.377841 0.358465 3.229412
0.374824 0.352588 3.176471
0.378233 0.352806 3.178432
0.380706 0.352153 3.172549
0.380794 0.349324 3.147059
0.372937 0.339312 3.056863
0.367794 0.331912 2.990196
0.380024 0.340182 3.064706
0.393137 0.349106 3.145098
0.393071 0.346276 3.119608
0.388471 0.339529 3.058823
0.387012 0.335612 3.023529
0.383206 0.329735 2.970588
0.383882 0.327776 2.952941
0.382469 0.324077 2.919608
0.380988 0.320376 2.886274
0.382049 0.318853 2.872549
0.382294 0.316676 2.852941
0.387265 0.318418 2.868628
0.389867 0.318200 2.866667
0.390853 0.316676 2.852941
-0.158049 0.361255 3.225490
-0.156141 0.364329 3.252941
-0.153625 0.366086 3.268628
-0.150267 0.365867 3.266667
-0.146735 0.365208 3.260784
-0.143216 0.364549 3.254902
-0.139961 0.364549 3.254902
-0.135965 0.362573 3.237255
-0.132808 0.362792 3.239216
-0.129176 0.361694 3.229412
-0.125335 0.359937 3.213725
-0.122122 0.359937 3.213725
-0.120069 0.363451 3.245098
-0.116824 0.363451 3.245098
-0.114608 0.366745 3.274510
-0.111133 0.366086 3.268628
-0.108124 0.366965 3.276471
-0.104094 0.364329 3.252941
-0.100476 0.363012 3.241176
-0.096882 0.361694 3.229412
-0.093312 0.360376 3.217647
-0.089929 0.359718 3.211765
-0.087035 0.361035 3.223529
-0.084169 0.362573 3.237255
-0.081225 0.363890 3.249020
-0.077976 0.363890 3.249020
-0.075043 0.365427 3.262745
-0.071780 0.365427 3.262745
-0.068806 0.366965 3.276471
-0.065412 0.366306 3.270588
-0.061918 0.364988 3.258823
-0.058871 0.366306 3.270588
-0.055900 0.368282 3.288235
-0.052518 0.367624 3.282353
-0.049235 0.367624 3.282353
-0.045843 0.366745 3.274510
-0.042645 0.367404 3.280392
-0.039271 0.366525 3.272549
-0.035847 0.364988 3.258823
-0.032647 0.365647 3.264706
-0.029206 0.363451 3.245098
-0.025898 0.362573 3.237255
-0.022606 0.361694 3.229412
-0.019412 0.362353 3.235294
-0.016108 0.360816 3.221569
-0.012831 0.359278 3.207843
-0.009641 0.359937 3.213726
-0.006400 0.358400 3.200000
-0.003186 0.356863 3.186275
0.000000 0.357522 3.192157
0.003178 0.355984 3.178432
0.006369 0.356643 3.184314
0.009494 0.354447 3.164706
0.012682 0.355106 3.170588
0.015784 0.353569 3.156863
0.018941 0.353569 3.156863
0.022002 0.352031 3.143137
0.025145 0.352031 3.143137
0.028218 0.351153 3.135294
0.031412 0.351812 3.141176
0.034618 0.352471 3.147059
0.037694 0.351812 3.141176
0.040937 0.352690 3.149019
0.044196 0.353569 3.156863
0.047353 0.353569 3.156863
0.050824 0.355765 3.176470
0.054367 0.358180 3.198039
0.057706 0.359059 3.205882
0.060837 0.358620 3.201961
0.063843 0.357522 3.192157
0.067118 0.357961 3.196079
0.070098 0.356863 3.186275
0.073600 0.358400 3.200000
0.076800 0.358400 3.200000
0.080343 0.359937 3.213725
0.083557 0.359937 3.213725
0.086400 0.358400 3.200000
0.089216 0.356863 3.186275
0.092175 0.355984 3.178432
0.093941 0.350714 3.131373
0.095978 0.346761 3.096078
0.096690 0.338416 3.021569
0.096994 0.329192 2.939216
0.096000 0.316235 2.823529
0.095324 0.305035 2.723529
0.092894 0.289004 2.580392
0.091992 0.278463 2.486275
0.102526 0.302180 2.698040
0.118147 0.339294 3.029412
0.121020 0.338855 3.025490
0.122196 0.333804 2.980392
0.122129 0.325678 2.907843
0.116016 0.302180 2.698040
0.093522 0.238055 2.125490
0.087088 0.216753 1.935294
0.091639 0.223122 1.992157
0.100175 0.238714 2.131373
0.093082 0.217192 1.939216
0.093676 0.214118 1.911765
0.114118 0.255624 2.282353
0.112300 0.246620 2.201961
0.115114 0.247937 2.213726
0.123147 0.260235 2.323529
0.128012 0.265506 2.370588
0.135559 0.276047 2.464706
0.154824 0.309647 2.764706
0.162171 0.318651 2.845098
0.131353 0.253647 2.264706
0.135122 0.256502 2.290196
0.152588 0.284831 2.543137
0.167571 0.307671 2.747059
0.179435 0.324141 2.894118
0.190235 0.338196 3.019608
0.200157 0.350275 3.127451
0.206216 0.355325 3.172549
0.213141 0.361694 3.229412
0.218735 0.365647 3.264706
0.223067 0.367404 3.280392
0.228241 0.370478 3.307843
0.232098 0.371357 3.315686
0.236388 0.372894 3.329412
0.240706 0.374431 3.343137
0.244192 0.374651 3.345098
0.247537 0.374651 3.345098
0.251324 0.375310 3.350980
0.254824 0.375529 3.352941
0.258176 0.375529 3.352941
0.261529 0.375529 3.352941
0.265967 0.377067 3.366666
0.269804 0.377725 3.372549
0.272700 0.377067 3.366666
0.275584 0.376408 3.360784
0.278457 0.375749 3.354902
0.281812 0.375749 3.354902
0.285167 0.375749 3.354902
0.289027 0.376408 3.360784
0.292729 0.376847 3.364706
0.296612 0.377506 3.370588
0.297888 0.374871 3.347059
0.301059 0.374651 3.345098
0.306545 0.377286 3.368628
0.308831 0.375969 3.356863
0.309818 0.373114 3.331372
0.312596 0.372455 3.325490
0.314059 0.370259 3.305882
0.316047 0.368722 3.292157
0.320480 0.370039 3.303921
0.321863 0.367843 3.284314
0.323788 0.366306 3.270588
0.326275 0.365427 3.262745
0.329537 0.365427 3.262745
0.333200 0.365867 3.266666
0.337073 0.366525 3.272549
0.339122 0.365208 3.260784
0.345059 0.368063 3.286275
0.348345 0.368063 3.286275
0.352261 0.368722 3.292157
0.356188 0.369380 3.298039
0.359486 0.369380 3.298039
0.362137 0.368722 3.292157
0.365429 0.368722 3.292157
0.367184 0.367184 3.278431
0.371127 0.367843 3.284314
0.372847 0.366306 3.270588
0.372961 0.363231 3.243137
0.373702 0.360816 3.221569
0.373712 0.357741 3.194118
0.372741 0.353788 3.158823
0.376600 0.354447 3.164706
0.376235 0.351153 3.135294
0.368457 0.341051 3.045098
0.363369 0.333584 2.978431
0.379853 0.345882 3.088235
0.390478 0.352690 3.149019
0.390686 0.350055 3.125490
0.386894 0.343906 3.070588
0.383988 0.338635 3.023529
0.382494 0.334682 2.988235
0.379412 0.329412 2.941177
0.378020 0.325678 2.907843
0.377331 0.322604 2.880392
0.378400 0.321067 2.866667
0.381006 0.320847 2.864706
0.385184 0.321945 2.874510
0.386206 0.320408 2.860785
0.388000 0.319529 2.852941
0.390047 0.318871 2.847059
-0.157280 0.362708 3.209804
-0.154259 0.363151 3.213725
-0.152888 0.367582 3.252941
-0.150357 0.369355 3.268628
-0.147618 0.370684 3.280392
-0.143475 0.368469 3.260784
-0.140214 0.368469 3.260784
-0.136788 0.368025 3.256863
-0.133049 0.366696 3.245098
-0.130118 0.367582 3.252941
-0.125794 0.364480 3.225490
-0.122122 0.363151 3.213725
-0.119851 0.366031 3.239216
-0.116188 0.364702 3.227451
-0.113373 0.366031 3.239216
-0.110333 0.366696 3.245098
-0.106700 0.365367 3.233333
-0.102902 0.363373 3.215686
-0.099322 0.362043 3.203922
-0.096471 0.363373 3.215686
-0.092857 0.361822 3.201961
-0.089655 0.361822 3.201961
-0.086612 0.362486 3.207843
-0.083710 0.363816 3.219608
-0.080196 0.362486 3.207843
-0.077176 0.363373 3.215686
-0.074547 0.366253 3.241176
-0.071608 0.367804 3.254902
-0.068353 0.367804 3.254902
-0.065137 0.368025 3.256863
-0.062253 0.370241 3.276471
-0.059082 0.370906 3.282353
-0.055800 0.370906 3.282353
-0.052518 0.370906 3.282353
-0.049324 0.371571 3.288235
-0.045925 0.370684 3.280392
-0.042722 0.371349 3.286274
-0.039271 0.369798 3.272549
-0.035998 0.369798 3.272549
-0.032588 0.368247 3.258823
-0.029329 0.368247 3.258823
-0.026055 0.368025 3.256863
-0.022743 0.367139 3.249020
-0.019529 0.367804 3.254902
-0.016206 0.366253 3.241177
-0.012965 0.366253 3.241177
-0.009682 0.364702 3.227451
-0.006455 0.364702 3.227451
-0.003220 0.363816 3.219608
0.000000 0.363816 3.219608
0.003206 0.362265 3.205882
0.006424 0.362929 3.211765
0.009576 0.360714 3.192157
0.012769 0.360714 3.192157
0.015931 0.360049 3.186275
0.019106 0.359827 3.184314
0.022290 0.359827 3.184314
0.025475 0.359827 3.184314
0.028765 0.361157 3.196078
0.031961 0.361157 3.196078
0.035157 0.361157 3.196078
0.038353 0.361157 3.196078
0.041575 0.361378 3.198039
0.045047 0.363594 3.217647
0.048471 0.365145 3.231373
0.051827 0.366031 3.239216
0.055100 0.366253 3.241177
0.058271 0.365810 3.237255
0.061322 0.364702 3.227451
0.064863 0.366475 3.243137
0.068024 0.366031 3.239216
0.071435 0.366918 3.247059
0.074998 0.368469 3.260784
0.078259 0.368469 3.260784
0.081716 0.369355 3.268628
0.084831 0.368690 3.262745
0.088253 0.369355 3.268628
0.091137 0.367804 3.254902
0.093994 0.366253 3.241176
0.096412 0.363151 3.213725
0.098349 0.358498 3.172549
0.099765 0.352294 3.117647
0.100618 0.344539 3.049020
0.100400 0.333682 2.952941
0.100333 0.323933 2.866667
0.097835 0.307094 2.717647
0.094749 0.289369 2.560785
0.094404 0.280727 2.484314
0.106753 0.309310 2.737255
0.131059 0.370241 3.276471
0.133612 0.368247 3.258824
0.126412 0.340108 3.009804
0.126133 0.331467 2.933333
0.112588 0.289147 2.558824
0.092294 0.231761 2.050980
0.084694 0.208053 1.841177
0.089669 0.215586 1.907843
0.120094 0.282722 2.501961
0.091275 0.210490 1.862745
0.098627 0.222898 1.972549
0.110200 0.244169 2.160784
0.125820 0.273416 2.419608
0.119718 0.255247 2.258823
0.123247 0.257906 2.282353
0.132971 0.273194 2.417647
0.152078 0.306873 2.715686
0.167200 0.331467 2.933333
0.140906 0.274524 2.429412
0.139055 0.266325 2.356863
0.157294 0.296237 2.621569
0.169484 0.313963 2.778431
0.180894 0.329694 2.917647
0.191965 0.344318 3.047059
0.200784 0.354510 3.137255
0.208000 0.361600 3.200000
0.213141 0.364924 3.229412
0.218735 0.368912 3.264706
0.223067 0.370684 3.280392
0.228241 0.373786 3.307843
0.232510 0.375337 3.321569
0.235971 0.375559 3.323529
0.238871 0.374894 3.317647
0.243620 0.377110 3.337255
0.246086 0.375780 3.325490
0.250882 0.377996 3.345098
0.254227 0.377996 3.345098
0.257120 0.377331 3.339216
0.261988 0.379547 3.358823
0.265347 0.379547 3.358823
0.268706 0.379547 3.358823
0.272065 0.379547 3.358823
0.274941 0.378882 3.352941
0.278945 0.379769 3.360784
0.281812 0.379104 3.354902
0.284000 0.377553 3.341177
0.288353 0.378882 3.352941
0.291706 0.378882 3.352941
0.294541 0.378218 3.347059
0.298412 0.378882 3.352941
0.301059 0.377996 3.345098
0.305474 0.379325 3.356863
0.309914 0.380655 3.368628
0.312188 0.379325 3.356863
0.312596 0.375780 3.325490
0.315363 0.375116 3.319608
0.317929 0.374229 3.311765
0.321241 0.374229 3.311765
0.323208 0.372678 3.298039
0.326506 0.372678 3.298039
0.328431 0.371127 3.284314
0.331122 0.370463 3.278431
0.332400 0.368247 3.258824
0.336871 0.369576 3.270588
0.341365 0.370906 3.282353
0.345882 0.372235 3.294118
0.349800 0.372900 3.300000
0.353729 0.373565 3.305882
0.356400 0.372900 3.300000
0.358204 0.371349 3.286275
0.361490 0.371349 3.286275
0.364559 0.371127 3.284314
0.367184 0.370463 3.278431
0.367361 0.367361 3.250980
0.369718 0.366475 3.243137
0.369127 0.362708 3.209804
0.368471 0.358941 3.176471
0.372335 0.359606 3.182353
0.373435 0.357612 3.164706
0.372167 0.353402 3.127451
0.361647 0.340551 3.013725
0.358729 0.335012 2.964706
0.378678 0.350743 3.103922
0.387329 0.355839 3.149019
0.386588 0.352294 3.117647
0.382353 0.345647 3.058823
0.379976 0.340773 3.015686
0.378510 0.336784 2.980392
0.377976 0.333682 2.952941
0.375871 0.329251 2.913726
0.374451 0.325484 2.880392
0.375533 0.323933 2.866667
0.378141 0.323712 2.864706
0.382310 0.324820 2.874510
0.384922 0.324598 2.872549
0.385147 0.322382 2.852941
0.387200 0.321718 2.847059
0.388973 0.320831 2.839216
-0.158625 0.369047 3.237255
-0.154447 0.366812 3.217647
-0.151690 0.367929 3.227451
-0.150267 0.372400 3.266667
-0.147706 0.374188 3.282353
-0.144337 0.373965 3.280392
-0.140804 0.373294 3.274510
-0.137035 0.371953 3.262745
-0.133853 0.372176 3.264706
-0.129882 0.370165 3.247059
-0.126253 0.369047 3.237255
-0.122569 0.367706 3.225490
-0.119633 0.368600 3.233333
-0.116188 0.367929 3.227451
-0.113373 0.369271 3.239216
-0.109933 0.368600 3.233333
-0.105665 0.365024 3.201961
-0.102275 0.364353 3.196079
-0.098653 0.362788 3.182353
-0.095059 0.361224 3.168628
-0.091833 0.361000 3.166667
-0.088502 0.360329 3.160784
-0.085288 0.360106 3.158823
-0.082129 0.360106 3.158823
-0.079461 0.362341 3.178432
-0.076424 0.363012 3.184314
-0.073735 0.365471 3.205882
-0.071349 0.369718 3.243137
-0.068147 0.369941 3.245098
-0.065333 0.372400 3.266666
-0.062104 0.372623 3.268627
-0.059047 0.373965 3.280392
-0.056100 0.376200 3.300000
-0.052706 0.375529 3.294117
-0.049412 0.375529 3.294117
-0.045925 0.373965 3.280392
-0.042722 0.374635 3.286274
-0.039435 0.374635 3.286274
-0.035933 0.372400 3.266666
-0.032784 0.373741 3.278431
-0.029329 0.371506 3.258823
-0.026055 0.371282 3.256863
-0.022798 0.371282 3.256863
-0.019494 0.370388 3.249020
-0.016275 0.371059 3.254902
-0.013020 0.371059 3.254902
-0.009724 0.369494 3.241177
-0.006482 0.369494 3.241177
-0.003227 0.367929 3.227451
0.000000 0.368600 3.233334
0.003233 0.368600 3.233334
0.006451 0.367706 3.225491
0.009676 0.367706 3.225491
0.012902 0.367706 3.225491
0.016059 0.366141 3.211765
0.019306 0.366812 3.217647
0.022524 0.366812 3.217647
0.025694 0.366141 3.211765
0.028959 0.366812 3.217647
0.032176 0.366812 3.217647
0.035610 0.369047 3.237255
0.038847 0.369047 3.237255
0.042110 0.369271 3.239216
0.045624 0.371506 3.258824
0.049000 0.372400 3.266667
0.052298 0.372624 3.268628
0.055500 0.372176 3.264706
0.058694 0.371729 3.260784
0.061769 0.370612 3.250980
0.065451 0.373071 3.272549
0.068518 0.371953 3.262745
0.072212 0.374188 3.282353
0.075494 0.374188 3.282353
0.079247 0.376424 3.301961
0.082402 0.375753 3.296078
0.085698 0.375753 3.296078
0.088994 0.375753 3.296078
0.092290 0.375753 3.296078
0.095188 0.374188 3.282353
0.097882 0.371953 3.262745
0.099869 0.367259 3.221569
0.101961 0.363235 3.186275
0.103529 0.357647 3.137255
0.103667 0.347588 3.049020
0.104382 0.339988 2.982353
0.103129 0.326576 2.864706
0.101786 0.313612 2.750980
0.097831 0.293494 2.574510
0.097959 0.286341 2.511765
0.125725 0.358318 3.143137
0.134416 0.373741 3.278431
0.129871 0.352506 3.092157
0.129422 0.343118 3.009804
0.123459 0.319871 2.805882
0.095118 0.240965 2.113726
0.086137 0.213471 1.872549
0.099622 0.241635 2.119608
0.122353 0.290588 2.549020
0.117984 0.274494 2.407843
0.097255 0.221741 1.945098
0.110900 0.247894 2.174510
0.117867 0.258400 2.266667
0.121900 0.262200 2.300000
0.126424 0.266894 2.341177
0.140627 0.291482 2.556863
0.155043 0.315624 2.768627
0.171112 0.342224 3.001961
0.151824 0.298412 2.617647
0.138592 0.267788 2.349020
0.155765 0.295953 2.596078
0.169604 0.316965 2.780392
0.181380 0.333506 2.925490
0.191347 0.346247 3.037255
0.199655 0.355635 3.119608
0.205578 0.360553 3.162745
0.212753 0.367482 3.223529
0.217027 0.369271 3.239216
0.222533 0.373071 3.272549
0.227700 0.376200 3.300000
0.232784 0.379106 3.325490
0.235831 0.378659 3.321569
0.238306 0.377318 3.309804
0.242618 0.378882 3.323529
0.245941 0.378882 3.323529
0.250294 0.380447 3.337255
0.253631 0.380447 3.337255
0.257422 0.381118 3.343137
0.260459 0.380671 3.339216
0.263798 0.380671 3.339216
0.267137 0.380671 3.339216
0.270476 0.380671 3.339216
0.274780 0.382012 3.350980
0.278294 0.382235 3.352941
0.281153 0.381565 3.347059
0.284500 0.381565 3.347059
0.288859 0.382906 3.358823
0.291024 0.381341 3.345098
0.293851 0.380671 3.339216
0.295620 0.378659 3.321569
0.299471 0.379329 3.327451
0.303869 0.380671 3.339216
0.307208 0.380671 3.339216
0.310547 0.380671 3.339216
0.312596 0.379106 3.325490
0.314804 0.377765 3.313725
0.319247 0.379106 3.325490
0.321812 0.378212 3.317647
0.325129 0.378212 3.317647
0.327088 0.376647 3.303921
0.329804 0.375976 3.298039
0.332508 0.375306 3.292157
0.333800 0.373071 3.272549
0.338284 0.374412 3.284314
0.342180 0.375082 3.290196
0.345265 0.374859 3.288235
0.349176 0.375529 3.294118
0.353729 0.376871 3.305882
0.354918 0.374635 3.286275
0.359486 0.375976 3.298039
0.360627 0.373741 3.278431
0.363035 0.372847 3.270588
0.365427 0.371953 3.262745
0.367139 0.370388 3.249020
0.365918 0.365918 3.209804
0.368676 0.365471 3.205882
0.369153 0.362788 3.182353
0.370959 0.361447 3.170588
0.366957 0.354518 3.109804
0.358633 0.343565 3.013725
0.358588 0.340659 2.988235
0.378422 0.356529 3.127451
0.384898 0.359659 3.154902
0.382024 0.354071 3.105882
0.379780 0.349153 3.062745
0.376225 0.343118 3.009804
0.375529 0.339765 2.980392
0.374276 0.335965 2.947059
0.372204 0.331494 2.907843
0.371571 0.328365 2.880392
0.371902 0.326129 2.860784
0.374506 0.325906 2.858824
0.378659 0.327024 2.868628
0.380484 0.326129 2.860785
0.382294 0.325235 2.852941
0.384353 0.324565 2.847059
0.385333 0.323000 2.833333
0.388973 0.323671 2.839216
-0.159298 0.373863 3.250980
-0.155106 0.371608 3.231373
-0.151229 0.370029 3.217647
-0.148192 0.370480 3.221569
-0.147265 0.376343 3.272549
-0.144424 0.377471 3.282353
-0.141394 0.378147 3.288235
-0.137859 0.377471 3.282353
-0.134094 0.376118 3.270588
-0.130118 0.374088 3.252941
-0.126941 0.374314 3.254902
-0.123016 0.372284 3.237255
-0.119778 0.372284 3.237255
-0.116118 0.370931 3.225490
-0.112275 0.368902 3.207843
-0.108467 0.366873 3.190196
-0.105406 0.367324 3.194118
-0.101584 0.365069 3.174510
-0.098106 0.363941 3.164706
-0.093647 0.358980 3.121569
-0.089957 0.356725 3.101961
-0.086306 0.354471 3.082353
-0.083329 0.354922 3.086275
-0.080549 0.356275 3.098039
-0.077157 0.354922 3.086275
-0.074824 0.358529 3.117647
-0.072473 0.362363 3.150980
-0.070443 0.368226 3.201961
-0.067694 0.370706 3.223529
-0.064902 0.373186 3.245098
-0.061806 0.374088 3.252941
-0.058694 0.374990 3.260784
-0.055867 0.377922 3.286274
-0.052706 0.378824 3.294117
-0.049324 0.378147 3.288235
-0.046035 0.378147 3.288235
-0.042569 0.376569 3.274510
-0.039365 0.377245 3.280392
-0.035933 0.375667 3.266666
-0.032725 0.376343 3.272549
-0.029329 0.374765 3.258823
-0.026165 0.376118 3.270588
-0.022757 0.373863 3.250980
-0.019541 0.374539 3.256863
-0.016245 0.373637 3.249020
-0.012996 0.373637 3.249020
-0.009765 0.374314 3.254902
-0.006482 0.372735 3.241177
-0.003247 0.373412 3.247059
0.000000 0.373412 3.247059
0.003239 0.372510 3.239216
0.006478 0.372510 3.239216
0.009718 0.372510 3.239216
0.012957 0.372510 3.239216
0.016196 0.372510 3.239216
0.019471 0.373186 3.245098
0.022675 0.372510 3.239216
0.025914 0.372510 3.239216
0.029206 0.373186 3.245098
0.032451 0.373186 3.245098
0.035912 0.375441 3.264706
0.039106 0.374765 3.258824
0.042467 0.375667 3.266667
0.045843 0.376569 3.274510
0.049059 0.376118 3.270588
0.052361 0.376343 3.272549
0.055467 0.375216 3.262745
0.058871 0.376118 3.270588
