ply
format ascii 1.0
element vertex 1739
property float x
property float y
property float z
end_header
0.428745 0.280333 3.298039
0.431273 0.279833 3.292157
0.435341 0.280333 3.298039
0.439422 0.280833 3.303922
0.442726 0.280833 3.303922
0.446029 0.280833 3.303922
0.448267 0.280167 3.296078
0.451563 0.280167 3.296078
0.452965 0.279000 3.282353
0.456247 0.279000 3.282353
0.457608 0.277833 3.268627
0.459771 0.277167 3.260784
0.459969 0.275333 3.239216
0.459282 0.273000 3.211765
0.458541 0.270667 3.184314
0.453765 0.266000 3.129412
0.450882 0.262500 3.088235
0.447629 0.258833 3.045098
0.448353 0.257500 3.029412
0.460439 0.262667 3.090196
0.468529 0.265500 3.123529
0.463955 0.261167 3.072549
0.459576 0.257000 3.023529
0.451500 0.250833 2.950981
0.448110 0.247333 2.909804
0.449500 0.246500 2.900000
0.452400 0.246500 2.900000
0.454069 0.245833 2.892157
0.450765 0.242500 2.852941
0.450500 0.240833 2.833333
0.454275 0.241333 2.839216
0.455851 0.240667 2.831373
0.458682 0.240667 2.831373
0.461514 0.240667 2.831373
0.462094 0.239500 2.817647
0.464912 0.239500 2.817647
0.467729 0.239500 2.817647
0.470547 0.239500 2.817647
0.473365 0.239500 2.817647
0.476182 0.239500 2.817647
0.479000 0.239500 2.817647
0.481818 0.239500 2.817647
0.485647 0.240000 2.823529
0.487453 0.239500 2.817647
0.491294 0.240000 2.823529
0.493088 0.239500 2.817647
0.495906 0.239500 2.817647
0.498724 0.239500 2.817647
0.501541 0.239500 2.817647
0.504359 0.239500 2.817647
0.507176 0.239500 2.817647
0.509994 0.239500 2.817647
0.512812 0.239500 2.817647
0.515629 0.239500 2.817647
0.518447 0.239500 2.817647
0.521265 0.239500 2.817647
-0.532618 0.234898 2.731373
-0.528745 0.234392 2.725490
-0.528669 0.235573 2.739216
-0.525929 0.235573 2.739216
-0.523190 0.235573 2.739216
-0.520451 0.235573 2.739216
-0.517712 0.235573 2.739216
-0.514973 0.235573 2.739216
-0.512233 0.235573 2.739216
-0.509494 0.235573 2.739216
-0.506755 0.235573 2.739216
-0.504016 0.235573 2.739216
-0.501277 0.235573 2.739216
-0.498537 0.235573 2.739216
-0.495798 0.235573 2.739216
-0.492000 0.235067 2.733333
-0.490320 0.235573 2.739216
-0.488976 0.236247 2.747059
-0.486229 0.236247 2.747059
-0.484518 0.236753 2.752941
-0.480735 0.236247 2.747059
-0.477988 0.236247 2.747059
-0.474224 0.235741 2.741177
-0.472494 0.236247 2.747059
-0.469747 0.236247 2.747059
-0.468333 0.236922 2.754902
-0.465578 0.236922 2.754902
-0.462824 0.236922 2.754902
-0.460069 0.236922 2.754902
-0.457314 0.236922 2.754902
-0.454559 0.236922 2.754902
-0.451804 0.236922 2.754902
-0.449049 0.236922 2.754902
-0.446294 0.236922 2.754902
-0.444802 0.237596 2.762745
-0.442039 0.237596 2.762745
-0.440212 0.238102 2.768627
-0.436514 0.237596 2.762745
-0.435598 0.238608 2.774510
-0.431906 0.238102 2.768627
-0.428225 0.237596 2.762745
-0.425463 0.237596 2.762745
-0.419100 0.235573 2.739216
-0.413380 0.233886 2.719608
-0.413326 0.235404 2.737255
-0.411176 0.235741 2.741177
-0.407267 0.235067 2.733333
-0.403373 0.234392 2.725490
-0.398629 0.233212 2.711765
-0.392769 0.231357 2.690196
-0.389794 0.231188 2.688235
-0.386824 0.231020 2.686275
-0.383576 0.230682 2.682353
-0.380616 0.230514 2.680392
-0.376829 0.229839 2.672549
-0.373059 0.229165 2.664706
-0.371757 0.230008 2.674510
-0.368271 0.229502 2.668628
-0.368020 0.231020 2.686275
-0.364533 0.230514 2.680392
-0.367941 0.234392 2.725490
-0.368631 0.236584 2.750981
-0.370574 0.239620 2.786274
-0.373224 0.243161 2.827451
-0.376818 0.247376 2.876471
-0.382098 0.252773 2.939216
-0.384218 0.256145 2.978432
-0.383247 0.257494 2.994118
-0.373529 0.252941 2.941177
-0.357988 0.244341 2.841177
-0.349755 0.240631 2.798039
-0.356925 0.247545 2.878431
-0.362488 0.253447 2.947059
-0.367914 0.259349 3.015686
-0.370118 0.263059 3.058824
-0.372706 0.267106 3.105882
-0.374500 0.270647 3.147059
-0.373898 0.272502 3.168627
-0.374629 0.275369 3.201961
-0.372337 0.276043 3.209804
-0.371382 0.277729 3.229412
-0.369047 0.278404 3.237255
-0.367361 0.279584 3.250980
-0.366306 0.281271 3.270588
-0.361729 0.280259 3.258823
-0.358471 0.280259 3.258823
-0.355212 0.280259 3.258823
-0.353435 0.281439 3.272549
-0.350163 0.281439 3.272549
-0.346890 0.281439 3.272549
-0.343000 0.280933 3.266666
-0.338306 0.279753 3.252941
-0.335053 0.279753 3.252941
-0.331800 0.279753 3.252941
-0.327161 0.278573 3.239216
-0.322549 0.277392 3.225490
-0.317382 0.275706 3.205882
-0.312831 0.274525 3.192157
-0.306406 0.271659 3.158823
-0.300612 0.269298 3.131372
-0.294873 0.266937 3.103921
-0.288082 0.263565 3.064706
-0.281188 0.260024 3.023530
-0.277804 0.259686 3.019608
-0.277996 0.262722 3.054902
-0.278118 0.265757 3.090196
-0.276074 0.266769 3.101961
-0.276251 0.269973 3.139216
-0.272088 0.268961 3.127451
-0.265420 0.265420 3.086275
-0.260500 0.263565 3.064706
-0.255129 0.261204 3.037255
-0.248837 0.257831 2.998039
-0.244553 0.256482 2.982353
-0.240935 0.255808 2.974510
-0.236863 0.254627 2.960784
-0.231269 0.251761 2.927451
-0.227882 0.251255 2.921569
-0.224357 0.250580 2.913726
-0.220400 0.249400 2.900000
-0.217500 0.249400 2.900000
-0.213584 0.248220 2.886274
-0.210698 0.248220 2.886274
-0.207812 0.248220 2.886274
-0.204925 0.248220 2.886274
-0.202039 0.248220 2.886274
-0.198747 0.247714 2.880392
-0.195867 0.247714 2.880392
-0.192986 0.247714 2.880392
-0.190494 0.248220 2.886274
-0.187225 0.247714 2.880392
-0.184345 0.247714 2.880392
-0.181465 0.247714 2.880392
-0.178584 0.247714 2.880392
-0.175704 0.247714 2.880392
-0.172824 0.247714 2.880392
-0.169943 0.247714 2.880392
-0.167063 0.247714 2.880392
-0.164182 0.247714 2.880392
-0.161302 0.247714 2.880392
-0.158422 0.247714 2.880392
-0.155224 0.247208 2.874510
-0.152349 0.247208 2.874510
-0.150188 0.248388 2.888236
-0.147300 0.248388 2.888236
-0.144412 0.248388 2.888236
-0.141524 0.248388 2.888236
-0.138635 0.248388 2.888236
-0.135747 0.248388 2.888236
-0.132859 0.248388 2.888236
-0.129971 0.248388 2.888236
-0.127082 0.248388 2.888236
-0.124194 0.248388 2.888236
-0.121306 0.248388 2.888236
-0.118176 0.247882 2.882353
-0.115529 0.248388 2.888236
-0.112641 0.248388 2.888236
-0.110051 0.249063 2.896079
-0.107373 0.249569 2.901961
-0.104259 0.249063 2.896079
-0.101363 0.249063 2.896079
-0.098467 0.249063 2.896079
-0.095571 0.249063 2.896079
-0.092675 0.249063 2.896079
-0.089778 0.249063 2.896079
-0.087294 0.250243 2.909804
-0.084214 0.249737 2.903922
-0.081694 0.250918 2.917647
-0.079147 0.252098 2.931373
-0.076929 0.254459 2.958824
-0.075000 0.258000 3.000000
-0.072847 0.261035 3.035294
-0.071345 0.266769 3.101961
-0.068718 0.268624 3.123529
-0.064688 0.264914 3.080392
-0.061216 0.263227 3.060784
-0.058751 0.265925 3.092157
-0.056224 0.268624 3.123529
-0.053900 0.272671 3.170588
-0.050635 0.272165 3.164706
-0.047647 0.273176 3.176470
-0.043894 0.269635 3.135294
-0.039688 0.262553 3.052941
-0.035059 0.251255 2.921569
-0.030325 0.237090 2.756863
-0.025745 0.221408 2.574510
-0.021900 0.209267 2.433333
-0.019765 0.212471 2.470588
-0.020657 0.253784 2.950981
-0.015882 0.227647 2.647059
-0.010647 0.183129 2.129412
-0.007537 0.162051 1.884314
-0.006024 0.172675 2.007843
-0.004027 0.173180 2.013726
-0.001947 0.167447 1.947059
0.000000 0.162051 1.884314
0.001888 0.162388 1.888235
0.004031 0.173349 2.015686
0.005559 0.159353 1.852941
0.007639 0.164243 1.909804
0.009745 0.167616 1.949020
0.011518 0.165086 1.919608
0.013520 0.166098 1.931373
0.017820 0.191561 2.227451
0.021124 0.201847 2.347059
0.022490 0.193416 2.249020
0.024373 0.190549 2.215686
0.024824 0.177902 2.068627
0.024649 0.163063 1.896079
0.024898 0.152945 1.778432
0.029029 0.166435 1.935294
0.036329 0.195271 2.270588
0.043000 0.217529 2.529412
0.040306 0.192573 2.239216
0.037702 0.170651 1.984314
0.041529 0.178576 2.076471
0.042453 0.173855 2.021569
0.040765 0.159353 1.852941
0.046180 0.172675 2.007843
0.048941 0.175373 2.039216
0.051863 0.178408 2.074510
0.054294 0.179588 2.088235
0.054529 0.173686 2.019608
0.045953 0.141141 1.641176
0.045718 0.135576 1.576471
0.048588 0.139286 1.619608
0.049235 0.136588 1.588235
0.057412 0.154294 1.794118
0.065288 0.170145 1.978431
0.062667 0.158510 1.843138
0.061559 0.151259 1.758824
0.072000 0.172000 2.000000
0.071316 0.165761 1.927451
0.061545 0.139286 1.619608
0.078841 0.173855 2.021569
0.086353 0.185659 2.158823
0.081196 0.170314 1.980392
0.089271 0.182792 2.125490
0.094769 0.189537 2.203922
0.090675 0.177227 2.060784
0.089912 0.171831 1.998039
0.100388 0.187682 2.182353
0.101373 0.185490 2.156863
0.106353 0.190549 2.215686
0.100978 0.177227 2.060784
0.077647 0.133553 1.552941
0.077700 0.131024 1.523529
0.076267 0.126133 1.466667
0.078669 0.127651 1.484314
0.079624 0.126808 1.474510
0.099108 0.154969 1.801961
0.131325 0.201678 2.345098
0.133894 0.202016 2.349020
0.118275 0.175373 2.039216
0.108398 0.158004 1.837255
0.113059 0.162051 1.884314
0.117216 0.165255 1.921569
0.102118 0.141647 1.647059
0.108582 0.148224 1.723529
0.126118 0.169471 1.970588
0.143000 0.189200 2.200000
0.131741 0.171663 1.996078
0.104310 0.133890 1.556863
0.115600 0.146200 1.700000
0.117300 0.146200 1.700000
0.144392 0.177396 2.062745
0.150214 0.181949 2.115686
0.129600 0.154800 1.800000
0.157880 0.185996 2.162745
0.164686 0.191392 2.225490
0.145735 0.167110 1.943137
0.149318 0.168965 1.964706
0.144337 0.161208 1.874510
0.142388 0.156992 1.825490
0.157071 0.170988 1.988235
0.141961 0.152608 1.774510
0.136906 0.145357 1.690196
0.154514 0.162051 1.884314
0.163233 0.169133 1.966667
0.154824 0.158510 1.843137
0.161833 0.163737 1.903922
0.147718 0.147718 1.717647
0.163253 0.161376 1.876471
0.182212 0.178071 2.070588
0.182188 0.176047 2.047059
0.164471 0.157161 1.827451
0.163622 0.154631 1.798039
0.149725 0.139961 1.627451
0.166124 0.153620 1.786275
0.187447 0.171494 1.994118
0.192422 0.174192 2.025490
0.188988 0.169302 1.968628
0.191147 0.169471 1.970588
0.204455 0.179420 2.086275
0.207706 0.180431 2.098039
0.206078 0.177227 2.060784
0.216457 0.184310 2.143137
0.192000 0.161882 1.882353
0.187420 0.156486 1.819608
0.194745 0.161039 1.872549
0.234294 0.191898 2.231373
0.242969 0.197125 2.292157
0.240645 0.193416 2.249020
0.232306 0.184984 2.150980
0.236594 0.186671 2.170588
0.250843 0.196114 2.280392
0.266835 0.206737 2.403922
0.289224 0.222082 2.582353
0.305765 0.232706 2.705883
0.314729 0.237427 2.760784
0.294265 0.220059 2.558824
0.268847 0.199318 2.317647
0.297776 0.218878 2.545098
0.323227 0.235573 2.739216
0.347200 0.250918 2.917647
0.361647 0.259180 3.013726
0.373677 0.265588 3.088236
0.380353 0.268118 3.117647
0.387329 0.270816 3.149020
0.395584 0.274357 3.190196
0.404657 0.278404 3.237255
0.409624 0.279584 3.250980
0.416361 0.281945 3.278431
0.419639 0.281945 3.278431
0.425447 0.283631 3.298039
0.429510 0.284137 3.303922
0.432043 0.283631 3.298039
0.436118 0.284137 3.303922
0.438639 0.283631 3.298039
0.441937 0.283631 3.298039
0.446029 0.284137 3.303922
0.447467 0.282957 3.290196
0.452369 0.283969 3.301960
0.452965 0.282282 3.282353
0.455157 0.281608 3.274510
0.456510 0.280427 3.260784
0.457835 0.279247 3.247059
0.457184 0.276886 3.219608
0.456198 0.274357 3.190196
0.455153 0.271827 3.160784
0.451490 0.267780 3.113725
0.442867 0.260867 3.033333
0.443018 0.259180 3.013726
0.455898 0.264914 3.080392
0.465698 0.268792 3.125490
0.462941 0.265420 3.086275
0.458625 0.261204 3.037255
0.453318 0.256482 2.982353
0.449100 0.252435 2.935294
0.444788 0.248388 2.888236
0.449804 0.249569 2.901961
0.451176 0.248725 2.892157
0.451914 0.247545 2.878431
0.450765 0.245353 2.852941
0.452371 0.244678 2.845098
0.452078 0.242992 2.825490
0.455851 0.243498 2.831373
0.457729 0.242992 2.825490
0.458318 0.241812 2.811765
0.462094 0.242318 2.817647
0.464912 0.242318 2.817647
0.467729 0.242318 2.817647
0.470547 0.242318 2.817647
0.473365 0.242318 2.817647
0.476182 0.242318 2.817647
0.479000 0.242318 2.817647
0.481818 0.242318 2.817647
0.484635 0.242318 2.817647
0.487453 0.242318 2.817647
0.490271 0.242318 2.817647
0.493088 0.242318 2.817647
0.495906 0.242318 2.817647
0.498724 0.242318 2.817647
0.501541 0.242318 2.817647
0.504359 0.242318 2.817647
0.507176 0.242318 2.817647
0.509994 0.242318 2.817647
0.512812 0.242318 2.817647
0.515629 0.242318 2.817647
0.518447 0.242318 2.817647
0.521265 0.242318 2.817647
-0.532618 0.237629 2.731373
-0.529886 0.237629 2.731373
-0.529804 0.238824 2.745098
-0.525929 0.238312 2.739216
-0.524314 0.238824 2.745098
-0.520451 0.238312 2.739216
-0.517712 0.238312 2.739216
-0.514973 0.238312 2.739216
-0.512233 0.238312 2.739216
-0.509494 0.238312 2.739216
-0.506755 0.238312 2.739216
-0.504016 0.238312 2.739216
-0.501277 0.238312 2.739216
-0.498537 0.238312 2.739216
-0.495798 0.238312 2.739216
-0.493059 0.238312 2.739216
-0.490320 0.238312 2.739216
-0.488976 0.238994 2.747059
-0.486229 0.238994 2.747059
-0.483482 0.238994 2.747059
-0.480735 0.238994 2.747059
-0.477988 0.238994 2.747059
-0.474224 0.238482 2.741177
-0.472494 0.238994 2.747059
-0.469747 0.238994 2.747059
-0.469333 0.240188 2.760784
-0.465578 0.239676 2.754902
-0.462824 0.239676 2.754902
-0.460069 0.239676 2.754902
-0.457314 0.239676 2.754902
-0.454559 0.239676 2.754902
-0.451804 0.239676 2.754902
-0.449049 0.239676 2.754902
-0.445341 0.239165 2.749020
-0.443539 0.239676 2.754902
-0.442039 0.240359 2.762745
-0.439276 0.240359 2.762745
-0.436514 0.240359 2.762745
-0.433751 0.240359 2.762745
-0.430988 0.240359 2.762745
-0.428225 0.240359 2.762745
-0.426369 0.240871 2.768627
-0.422700 0.240359 2.762745
-0.417255 0.238824 2.745098
-0.411549 0.237118 2.725490
-0.410588 0.238141 2.737255
-0.409312 0.238994 2.747059
-0.402792 0.236776 2.721569
-0.400647 0.237118 2.725490
-0.394200 0.234900 2.700000
-0.392069 0.235241 2.703922
-0.385412 0.232853 2.676471
-0.384137 0.233706 2.686275
-0.382008 0.234047 2.690196
-0.377106 0.232682 2.674510
-0.374157 0.232512 2.672549
-0.371212 0.232341 2.670588
-0.368271 0.232171 2.668628
-0.365602 0.232171 2.668628
-0.365333 0.233706 2.686275
-0.362647 0.233706 2.686275
-0.362588 0.235412 2.705883
-0.364316 0.238312 2.739216
-0.365976 0.241212 2.772549
-0.367057 0.243771 2.801961
-0.372157 0.249059 2.862745
-0.376377 0.253835 2.917647
-0.379984 0.258271 2.968627
-0.380502 0.260659 2.996079
-0.377506 0.260659 2.996078
-0.362500 0.252300 2.900000
-0.346471 0.243088 2.794118
-0.348500 0.246500 2.833333
-0.356910 0.254518 2.925490
-0.362288 0.260488 2.994118
-0.367294 0.266288 3.060784
-0.367733 0.268847 3.090196
-0.368808 0.271918 3.125490
-0.369812 0.274988 3.160784
-0.369835 0.277376 3.188235
-0.369127 0.279253 3.209804
-0.367482 0.280447 3.223529
-0.366475 0.282153 3.243137
-0.364769 0.283347 3.256863
-0.360859 0.282835 3.250980
-0.359118 0.284029 3.264706
-0.355853 0.284029 3.264706
-0.352588 0.284029 3.264706
-0.350792 0.285224 3.278431
-0.346890 0.284712 3.272549
-0.343618 0.284712 3.272549
-0.339733 0.284200 3.266666
-0.336467 0.284200 3.266666
-0.331200 0.282494 3.247059
-0.327953 0.282494 3.247059
-0.323922 0.281812 3.239216
-0.320100 0.281300 3.233333
-0.316675 0.281129 3.231373
-0.310971 0.278912 3.205882
-0.305129 0.276524 3.178432
-0.300088 0.274818 3.158823
-0.293796 0.271918 3.125490
-0.288665 0.270041 3.103921
-0.281412 0.266118 3.058824
-0.276212 0.264071 3.035294
-0.271059 0.262024 3.011765
-0.272410 0.266288 3.060784
-0.272455 0.269359 3.096079
-0.272941 0.272941 3.137255
-0.270816 0.273965 3.149019
-0.266333 0.272600 3.133333
-0.260235 0.269529 3.098039
-0.254371 0.266629 3.064706
-0.249055 0.264241 3.037255
-0.244271 0.262365 3.015686
-0.238588 0.259465 2.982353
-0.234522 0.258271 2.968627
-0.230941 0.257588 2.960784
-0.226924 0.256394 2.947059
-0.222933 0.255200 2.933333
-0.218529 0.253494 2.913726
-0.214600 0.252300 2.900000
-0.211700 0.252300 2.900000
-0.208800 0.252300 2.900000
-0.204925 0.251106 2.886274
-0.202039 0.251106 2.886274
-0.199153 0.251106 2.886274
-0.196267 0.251106 2.886274
-0.193380 0.251106 2.886274
-0.190494 0.251106 2.886274
-0.187608 0.251106 2.886274
-0.184345 0.250594 2.880392
-0.181835 0.251106 2.886274
-0.178584 0.250594 2.880392
-0.176063 0.251106 2.886274
-0.172824 0.250594 2.880392
-0.169943 0.250594 2.880392
-0.167063 0.250594 2.880392
-0.164182 0.250594 2.880392
-0.161302 0.250594 2.880392
-0.158422 0.250594 2.880392
-0.155541 0.250594 2.880392
-0.152661 0.250594 2.880392
-0.149780 0.250594 2.880392
-0.147300 0.251276 2.888236
-0.144412 0.251276 2.888236
-0.141524 0.251276 2.888236
-0.138635 0.251276 2.888236
-0.135747 0.251276 2.888236
-0.132859 0.251276 2.888236
-0.129971 0.251276 2.888236
-0.127082 0.251276 2.888236
-0.124194 0.251276 2.888236
-0.121306 0.251276 2.888236
-0.118418 0.251276 2.888236
-0.115294 0.250765 2.882353
-0.112641 0.251276 2.888236
-0.109753 0.251276 2.888236
-0.107373 0.252471 2.901961
-0.104471 0.252471 2.901961
-0.101363 0.251959 2.896079
-0.098467 0.251959 2.896079
-0.095571 0.251959 2.896079
-0.092675 0.251959 2.896079
-0.089596 0.251447 2.890196
-0.087294 0.253153 2.909804
-0.084384 0.253153 2.909804
-0.081694 0.253835 2.917647
-0.079147 0.255029 2.931373
-0.076725 0.256735 2.950981
-0.074657 0.259806 2.986275
-0.072518 0.262876 3.021569
-0.071029 0.268676 3.088235
-0.068761 0.271918 3.125490
-0.065100 0.269700 3.100000
-0.061137 0.265947 3.056863
-0.058714 0.268847 3.090196
-0.056188 0.271576 3.121569
-0.053567 0.274135 3.150980
-0.050510 0.274647 3.156862
-0.047441 0.275159 3.162745
-0.043702 0.271576 3.121569
-0.039688 0.265606 3.052941
-0.035059 0.254176 2.921569
-0.030196 0.238824 2.745098
-0.025745 0.223982 2.574510
-0.021900 0.211700 2.433333
-0.019341 0.210335 2.417647
-0.020698 0.257247 2.956863
-0.015812 0.229271 2.635294
-0.010471 0.182188 2.094118
-0.007467 0.162400 1.866667
-0.006494 0.188329 2.164706
-0.004235 0.184235 2.117647
-0.001763 0.153359 1.762745
0.000000 0.174853 2.009804
0.002167 0.188500 2.166667
0.004082 0.177582 2.041177
0.005259 0.152506 1.752941
0.007349 0.159841 1.837255
0.009382 0.163253 1.876471
0.011635 0.168712 1.939216
0.013561 0.168541 1.937255
0.016878 0.183553 2.109804
0.020329 0.196518 2.258824
0.021824 0.189865 2.182353
0.021763 0.172124 1.978431
0.023106 0.167518 1.925490
0.024471 0.163765 1.882353
0.024898 0.154724 1.778432
0.029559 0.171441 1.970588
0.034667 0.188500 2.166667
0.040133 0.205388 2.360785
0.035082 0.169565 1.949020
0.036771 0.168371 1.935294
0.040000 0.174000 2.000000
0.040888 0.169394 1.947059
0.042102 0.166494 1.913726
0.045414 0.171782 1.974510
0.041553 0.150629 1.731373
0.053382 0.185771 2.135294
0.055569 0.185941 2.137255
0.055906 0.180141 2.070588
0.049192 0.152847 1.756863
0.046627 0.139882 1.607843
0.050647 0.146876 1.688235
0.049478 0.138859 1.596079
0.060110 0.163424 1.878431
0.069818 0.184065 2.115686
0.068933 0.176388 2.027451
0.061216 0.152165 1.749020
0.066565 0.160865 1.849020
0.061159 0.143806 1.652941
0.060278 0.138006 1.586275
0.079147 0.176559 2.029412
0.084078 0.182871 2.101961
0.079588 0.168882 1.941177
0.088612 0.183553 2.109804
0.096371 0.194982 2.241177
0.095420 0.188671 2.168627
0.090971 0.175876 2.021569
0.096329 0.182188 2.094118
0.103031 0.190718 2.192157
0.101176 0.183382 2.107843
0.110106 0.195494 2.247059
0.095098 0.165471 1.901961
0.075400 0.128624 1.478431
0.072800 0.121800 1.400000
0.079188 0.129988 1.494118
0.094871 0.152847 1.756863
0.120784 0.191059 2.196079
0.140659 0.218524 2.511765
0.136018 0.207606 2.386275
0.122596 0.183894 2.113726
0.116612 0.171953 1.976471
0.117529 0.170418 1.958823
0.118771 0.169394 1.947059
0.114761 0.161035 1.850981
0.128471 0.177412 2.039216
0.136157 0.185088 2.127451
0.134971 0.180653 2.076471
0.120871 0.159329 1.831373
0.102076 0.132547 1.523529
0.115067 0.147218 1.692157
0.122847 0.154894 1.780392
0.137529 0.170929 1.964706
0.138380 0.169565 1.949020
0.142024 0.171612 1.972549
0.166612 0.198565 2.282353
0.160914 0.189182 2.174510
0.149412 0.173318 1.992157
0.160941 0.184235 2.117647
0.155661 0.175876 2.021569
0.140247 0.156429 1.798039
0.147776 0.162741 1.870588
0.141961 0.154382 1.774510
0.146753 0.157624 1.811765
0.158694 0.168371 1.935294
0.184390 0.193276 2.221569
0.172941 0.179118 2.058824
0.176000 0.180141 2.070588
0.176553 0.178606 2.052941
0.182359 0.182359 2.096078
0.185490 0.183382 2.107843
0.176080 0.172124 1.978431
0.186000 0.179800 2.066667
0.186818 0.178606 2.052941
0.185082 0.175024 2.011765
0.186000 0.174000 2.000000
0.178231 0.164959 1.896079
0.190373 0.174341 2.003922
0.192565 0.174512 2.005883
0.201798 0.180994 2.080392
0.191388 0.169906 1.952941
0.195088 0.171441 1.970588
0.190000 0.165300 1.900000
0.219824 0.189353 2.176471
0.217200 0.185259 2.129412
0.194892 0.164618 1.892157
0.191278 0.160012 1.839216
0.215971 0.178947 2.056863
0.244008 0.200271 2.301961
0.235400 0.191400 2.200000
0.218329 0.175876 2.021569
0.235739 0.188159 2.162745
0.254725 0.201465 2.315686
0.267271 0.209482 2.407843
0.289443 0.224835 2.584314
0.304214 0.234218 2.692157
0.317635 0.242406 2.786274
0.304186 0.230124 2.645098
0.276580 0.207435 2.384314
0.302824 0.225176 2.588235
0.330400 0.243600 2.800000
0.348133 0.254518 2.925490
0.363294 0.263388 3.027451
0.372965 0.268165 3.082353
0.383224 0.273282 3.141176
0.392394 0.277547 3.190196
0.398988 0.279935 3.217647
0.407353 0.283518 3.258823
0.413824 0.285735 3.284314
0.418851 0.286929 3.298039
0.421396 0.286418 3.292157
0.425447 0.286929 3.298039
0.428745 0.286929 3.298039
0.432814 0.287441 3.303922
0.435341 0.286929 3.298039
0.439422 0.287441 3.303922
0.442726 0.287441 3.303922
0.444971 0.286759 3.296078
0.448267 0.286759 3.296078
0.449682 0.285565 3.282353
0.451882 0.284882 3.274510
0.453249 0.283688 3.260784
0.453765 0.281982 3.241176
0.453965 0.280106 3.219608
0.453286 0.277718 3.192157
0.453114 0.275671 3.168627
0.446682 0.269871 3.101961
0.442676 0.265606 3.052941
0.439431 0.261853 3.009804
0.448782 0.265606 3.052941
0.461122 0.271065 3.115686
0.462776 0.270212 3.105882
0.457647 0.265435 3.050980
0.448855 0.258612 2.972549
0.448251 0.256565 2.949020
0.444900 0.252982 2.907843
0.445090 0.251447 2.890196
0.448588 0.251788 2.894118
0.449953 0.250935 2.884314
0.449759 0.249229 2.864706
0.448596 0.247012 2.839216
0.449253 0.245818 2.825490
0.452078 0.245818 2.825490
0.455851 0.246329 2.831373
0.457729 0.245818 2.825490
0.459276 0.245135 2.817647
0.462094 0.245135 2.817647
0.464912 0.245135 2.817647
0.467729 0.245135 2.817647
0.470547 0.245135 2.817647
0.473365 0.245135 2.817647
0.476182 0.245135 2.817647
0.479000 0.245135 2.817647
0.481818 0.245135 2.817647
0.484635 0.245135 2.817647
0.487453 0.245135 2.817647
0.490271 0.245135 2.817647
0.493088 0.245135 2.817647
0.495906 0.245135 2.817647
0.498724 0.245135 2.817647
0.501541 0.245135 2.817647
0.504359 0.245135 2.817647
0.507176 0.245135 2.817647
0.509994 0.245135 2.817647
0.512812 0.245135 2.817647
0.515629 0.245135 2.817647
0.518447 0.245135 2.817647
0.521265 0.245135 2.817647
-0.532618 0.240361 2.731373
-0.531408 0.241051 2.739216
-0.528669 0.241051 2.739216
-0.525929 0.241051 2.739216
-0.523190 0.241051 2.739216
-0.520451 0.241051 2.739216
-0.517712 0.241051 2.739216
-0.514973 0.241051 2.739216
-0.512233 0.241051 2.739216
-0.509494 0.241051 2.739216
-0.506755 0.241051 2.739216
-0.504016 0.241051 2.739216
-0.501277 0.241051 2.739216
-0.498537 0.241051 2.739216
-0.495798 0.241051 2.739216
-0.493059 0.241051 2.739216
-0.490320 0.241051 2.739216
-0.488976 0.241741 2.747059
-0.487271 0.242259 2.752941
-0.484518 0.242259 2.752941
-0.480735 0.241741 2.747059
-0.477988 0.241741 2.747059
-0.474224 0.241224 2.741177
-0.472494 0.241741 2.747059
-0.469747 0.241741 2.747059
-0.468333 0.242431 2.754902
-0.465578 0.242431 2.754902
-0.462824 0.242431 2.754902
-0.460069 0.242431 2.754902
-0.457314 0.242431 2.754902
-0.454559 0.242431 2.754902
-0.451804 0.242431 2.754902
-0.449049 0.242431 2.754902
-0.446294 0.242431 2.754902
-0.442592 0.241914 2.749020
-0.442039 0.243122 2.762745
-0.439276 0.243122 2.762745
-0.436514 0.243122 2.762745
-0.433751 0.243122 2.762745
-0.431906 0.243639 2.768627
-0.428225 0.243122 2.762745
-0.425463 0.243122 2.762745
-0.422700 0.243122 2.762745
-0.420831 0.243639 2.768627
-0.415398 0.242086 2.750980
-0.409706 0.240361 2.731373
-0.407851 0.240878 2.737255
-0.404824 0.240706 2.735294
-0.401800 0.240533 2.733333
-0.397063 0.239325 2.719608
-0.391500 0.237600 2.700000
-0.388518 0.237427 2.698040
-0.385539 0.237255 2.696078
-0.380616 0.235875 2.680392
-0.377659 0.235702 2.678431
-0.373882 0.235012 2.670588
-0.370667 0.234667 2.666667
-0.368541 0.235012 2.670588
-0.364796 0.234322 2.662745
-0.363733 0.235357 2.674510
-0.361853 0.235875 2.680392
-0.360749 0.236910 2.692157
-0.358318 0.237082 2.694118
-0.360541 0.240361 2.731373
-0.362947 0.243812 2.770588
-0.364765 0.246918 2.805882
-0.368029 0.251059 2.852941
-0.371451 0.255373 2.901961
-0.375023 0.259859 2.952941
-0.376271 0.262792 2.986275
-0.373039 0.262620 2.984314
-0.363490 0.257961 2.931373
-0.347294 0.248471 2.823529
-0.340882 0.245882 2.794118
-0.348527 0.253475 2.880392
-0.356706 0.261584 2.972549
-0.359567 0.265898 3.021569
-0.360941 0.269176 3.058824
-0.363388 0.273318 3.105882
-0.365741 0.277459 3.152941
-0.364392 0.278839 3.168627
-0.364353 0.281255 3.196079
-0.363373 0.282980 3.215686
-0.361694 0.284188 3.229412
-0.359335 0.284878 3.237255
-0.357608 0.286086 3.250980
-0.354998 0.286604 3.256863
-0.352588 0.287294 3.264706
-0.349324 0.287294 3.264706
-0.345435 0.286776 3.258823
-0.343618 0.287984 3.272549
-0.339733 0.287467 3.266666
-0.336467 0.287467 3.266666
-0.333200 0.287467 3.266666
-0.330527 0.287984 3.272549
-0.325294 0.286259 3.252941
-0.322041 0.286259 3.252941
-0.316867 0.284533 3.233333
-0.314204 0.285051 3.239216
-0.309082 0.283325 3.219608
-0.305118 0.282635 3.211765
-0.297667 0.278667 3.166667
-0.293771 0.277976 3.158823
-0.288086 0.275561 3.131372
-0.281386 0.272110 3.092157
-0.274588 0.268486 3.050981
-0.269618 0.266588 3.029412
-0.266588 0.266588 3.029412
-0.266288 0.269349 3.060784
-0.265251 0.271420 3.084314
-0.265667 0.275043 3.125490
-0.262541 0.275043 3.125490
-0.259578 0.275216 3.127451
-0.254200 0.272800 3.100000
-0.247765 0.269176 3.058823
-0.242510 0.266761 3.031373
-0.237774 0.264863 3.009804
-0.233694 0.263655 2.996078
-0.229037 0.261757 2.974510
-0.224573 0.260031 2.954902
-0.221029 0.259341 2.947059
-0.216631 0.257616 2.927451
-0.212702 0.256408 2.913726
-0.209365 0.255890 2.907843
-0.205482 0.254682 2.894118
-0.202588 0.254682 2.894118
-0.199694 0.254682 2.894118
-0.195867 0.253475 2.880392
-0.192986 0.253475 2.880392
-0.190106 0.253475 2.880392
-0.187225 0.253475 2.880392
-0.184345 0.253475 2.880392
-0.181465 0.253475 2.880392
-0.178584 0.253475 2.880392
-0.175704 0.253475 2.880392
-0.173176 0.253992 2.886274
-0.169943 0.253475 2.880392
-0.167063 0.253475 2.880392
-0.164182 0.253475 2.880392
-0.161302 0.253475 2.880392
-0.158422 0.253475 2.880392
-0.155541 0.253475 2.880392
-0.152661 0.253475 2.880392
-0.149475 0.252957 2.874510
-0.146900 0.253475 2.880392
-0.144706 0.254682 2.894118
-0.141524 0.254165 2.888236
-0.138635 0.254165 2.888236
-0.135747 0.254165 2.888236
-0.132859 0.254165 2.888236
-0.129971 0.254165 2.888236
-0.127082 0.254165 2.888236
-0.124194 0.254165 2.888236
-0.121306 0.254165 2.888236
-0.118418 0.254165 2.888236
-0.115529 0.254165 2.888236
-0.112641 0.254165 2.888236
-0.109753 0.254165 2.888236
-0.106865 0.254165 2.888236
-0.103976 0.254165 2.888236
-0.101569 0.255373 2.901961
-0.098467 0.254855 2.896079
-0.095765 0.255373 2.901961
-0.092675 0.254855 2.896079
-0.089778 0.254855 2.896079
-0.086882 0.254855 2.896079
-0.084214 0.255545 2.903922
-0.081475 0.256063 2.909804
-0.078776 0.256753 2.917647
-0.076573 0.259169 2.945098
-0.074167 0.261067 2.966667
-0.072329 0.265208 3.013726
-0.070127 0.268314 3.049020
-0.068545 0.274180 3.115686
-0.065388 0.274008 3.113725
-0.061176 0.269176 3.058824
-0.058080 0.269004 3.056863
-0.055694 0.272282 3.094118
-0.053300 0.275906 3.135294
-0.050196 0.276078 3.137255
-0.047235 0.277114 3.149019
-0.043702 0.274698 3.121569
-0.039510 0.267451 3.039216
-0.034988 0.256580 2.915686
-0.030131 0.241051 2.739215
-0.025922 0.228110 2.592157
-0.022165 0.216722 2.462745
-0.019075 0.209820 2.384314
-0.020794 0.261412 2.970588
-0.015741 0.230871 2.623529
-0.010510 0.184973 2.101961
-0.007867 0.173067 1.966667
-0.006706 0.196706 2.235294
-0.004000 0.176000 2.000000
-0.001825 0.160643 1.825490
0.000000 0.182557 2.074510
0.002118 0.186353 2.117647
0.004051 0.178243 2.025490
0.005635 0.165302 1.878431
0.007051 0.155122 1.762745
0.009618 0.169271 1.923530
0.012965 0.190149 2.160784
0.014576 0.183247 2.082353
0.016329 0.179624 2.041177
0.019112 0.186871 2.123529
0.021235 0.186871 2.123530
0.020533 0.164267 1.866667
0.023106 0.169443 1.925490
0.026000 0.176000 2.000000
0.026353 0.165647 1.882353
0.030265 0.177553 2.017647
0.035890 0.197396 2.243137
0.037767 0.195498 2.221569
0.033247 0.162541 1.847059
0.036212 0.167718 1.905882
0.038235 0.168235 1.911765
0.039694 0.166337 1.890196
0.045122 0.180486 2.050981
0.039776 0.152188 1.729412
0.039906 0.146322 1.662745
0.052451 0.184627 2.098039
0.054447 0.184282 2.094118
0.057865 0.188596 2.143137
0.054847 0.172376 1.958823
0.048220 0.146322 1.662745
0.049412 0.144941 1.647059
0.052396 0.148737 1.690196
0.061490 0.169098 1.921569
0.070594 0.188251 2.139216
0.069933 0.181004 2.056863
0.067049 0.168580 1.915686
0.066565 0.162714 1.849020
0.066818 0.158918 1.805882
0.069667 0.161333 1.833333
0.077771 0.175482 1.994118
0.078745 0.173239 1.968628
0.079669 0.170996 1.943137
0.079553 0.166682 1.894118
0.091649 0.187561 2.131373
0.093349 0.186698 2.121569
0.080647 0.157710 1.792157
0.091910 0.175827 1.998039
0.095106 0.178071 2.023530
0.094400 0.173067 1.966667
0.107800 0.193600 2.200000
0.108333 0.190667 2.166667
0.094900 0.163749 1.860784
0.088400 0.149600 1.700000
0.102259 0.169788 1.929412
0.112659 0.183592 2.086275
0.136206 0.217929 2.476471
0.137914 0.216722 2.462745
0.124953 0.192910 2.192157
0.108949 0.165302 1.878431
0.114298 0.170478 1.937255
0.138824 0.203608 2.313726
0.140180 0.202227 2.298039
0.132388 0.187906 2.135294
0.140082 0.195671 2.223530
0.146949 0.202055 2.296078
0.149755 0.202745 2.303922
0.111941 0.149255 1.696079
0.113637 0.149255 1.696079
0.128800 0.166682 1.894118
0.137459 0.175310 1.992157
0.144255 0.181349 2.060784
0.137963 0.170996 1.943137
0.156988 0.191875 2.180392
0.165180 0.199122 2.262745
0.168749 0.200675 2.280392
0.163382 0.191702 2.178432
0.175545 0.203263 2.309804
0.176194 0.201365 2.288235
0.168235 0.189804 2.156863
0.162957 0.181522 2.062745
0.159529 0.175482 1.994118
0.155488 0.168925 1.919608
0.153710 0.164957 1.874510
0.184390 0.195498 2.221569
0.164871 0.172722 1.962745
0.158333 0.163922 1.862745
0.176890 0.181004 2.056863
0.186282 0.188424 2.141176
0.187906 0.187906 2.135294
0.185853 0.183765 2.088235
0.198000 0.193600 2.200000
0.200200 0.193600 2.200000
0.193741 0.185318 2.105882
0.196941 0.186353 2.117647
0.181365 0.169788 1.929412
0.196333 0.181867 2.066667
0.176565 0.161851 1.839216
0.189055 0.171514 1.949020
0.220788 0.198259 2.252941
0.219547 0.195153 2.217647
0.191765 0.168753 1.917647
0.221804 0.193255 2.196079
0.217400 0.187561 2.131373
0.213271 0.182212 2.070588
0.189443 0.160298 1.821569
0.195794 0.164094 1.864706
0.236733 0.196533 2.233333
0.253863 0.208784 2.372549
0.248612 0.202573 2.301961
0.261173 0.210855 2.396078
0.272627 0.218102 2.478431
0.276847 0.219482 2.494118
0.305694 0.240188 2.729412
0.314406 0.244847 2.782353
0.321882 0.248471 2.823529
0.317039 0.242604 2.756863
0.284769 0.216031 2.454902
0.311541 0.234322 2.662745
0.334333 0.249333 2.833333
0.349767 0.258651 2.939216
0.362588 0.265898 3.021568
0.375100 0.272800 3.100000
0.385855 0.278322 3.162745
0.396494 0.283671 3.223529
0.403122 0.286086 3.250980
0.409804 0.288502 3.278431
0.414812 0.289710 3.292157
0.418851 0.290227 3.298039
0.421396 0.289710 3.292157
0.427218 0.291435 3.311765
0.430529 0.291435 3.311765
0.432043 0.290227 3.298039
0.435341 0.290227 3.298039
0.439422 0.290745 3.303922
0.442726 0.290745 3.303922
0.444971 0.290055 3.296078
0.445600 0.288329 3.276471
0.449682 0.288847 3.282353
0.451882 0.288157 3.274510
0.451341 0.285741 3.247059
0.449922 0.282808 3.213725
0.451753 0.281945 3.203922
0.449110 0.278322 3.162745
0.447225 0.275216 3.127451
0.442447 0.270384 3.072549
0.436706 0.265035 3.011765
0.444298 0.267796 3.043137
0.459159 0.274871 3.123529
0.459090 0.272973 3.101961
0.457518 0.270212 3.070588
0.450588 0.264345 3.003922
0.445302 0.259514 2.949020
0.441992 0.255890 2.907843
0.441600 0.253992 2.886274
0.445694 0.254682 2.894118
0.444333 0.252267 2.866667
0.446894 0.252094 2.864706
0.445757 0.249851 2.839216
0.448596 0.249851 2.839216
0.449253 0.248643 2.825490
0.452078 0.248643 2.825490
0.455851 0.249161 2.831373
0.455506 0.247435 2.811765
0.459276 0.247953 2.817647
0.462094 0.247953 2.817647
0.464912 0.247953 2.817647
0.467729 0.247953 2.817647
0.470547 0.247953 2.817647
0.473365 0.247953 2.817647
0.476182 0.247953 2.817647
0.479000 0.247953 2.817647
0.481818 0.247953 2.817647
0.484635 0.247953 2.817647
0.487453 0.247953 2.817647
0.490271 0.247953 2.817647
0.493088 0.247953 2.817647
0.495906 0.247953 2.817647
0.498724 0.247953 2.817647
0.501541 0.247953 2.817647
0.504359 0.247953 2.817647
0.507176 0.247953 2.817647
0.509994 0.247953 2.817647
0.512812 0.247953 2.817647
0.515629 0.247953 2.817647
0.518447 0.247953 2.817647
0.521265 0.247953 2.817647
-0.532618 0.243092 2.731373
-0.531408 0.243790 2.739216
-0.528669 0.243790 2.739216
-0.525929 0.243790 2.739216
-0.524314 0.244314 2.745098
-0.520451 0.243790 2.739216
-0.517712 0.243790 2.739216
-0.514973 0.243790 2.739216
-0.512233 0.243790 2.739216
-0.509494 0.243790 2.739216
-0.506755 0.243790 2.739216
-0.504016 0.243790 2.739216
-0.501277 0.243790 2.739216
-0.498537 0.243790 2.739216
-0.495798 0.243790 2.739216
-0.493059 0.243790 2.739216
-0.489267 0.243267 2.733333
-0.488976 0.244488 2.747059
-0.487271 0.245012 2.752941
-0.483482 0.244488 2.747059
-0.480735 0.244488 2.747059
-0.477988 0.244488 2.747059
-0.474224 0.243965 2.741177
-0.472494 0.244488 2.747059
-0.469747 0.244488 2.747059
-0.469333 0.245710 2.760784
-0.465578 0.245186 2.754902
-0.462824 0.245186 2.754902
-0.460069 0.245186 2.754902
-0.457314 0.245186 2.754902
-0.454559 0.245186 2.754902
-0.451804 0.245186 2.754902
-0.448090 0.244663 2.749020
-0.446294 0.245186 2.754902
-0.443539 0.245186 2.754902
-0.442039 0.245884 2.762745
-0.440212 0.246408 2.768627
-0.436514 0.245884 2.762745
-0.433751 0.245884 2.762745
-0.430988 0.245884 2.762745
-0.428225 0.245884 2.762745
-0.426369 0.246408 2.768627
-0.421800 0.245361 2.756863
-0.421726 0.246931 2.774510
-0.417174 0.245884 2.762745
-0.413529 0.245361 2.756863
-0.406098 0.242569 2.725490
-0.403373 0.242569 2.725490
-0.401224 0.242918 2.729412
-0.398208 0.242743 2.727451
-0.393490 0.241522 2.713726
-0.388800 0.240300 2.700000
-0.385820 0.240126 2.698040
-0.382843 0.239951 2.696078
-0.379871 0.239776 2.694118
-0.374157 0.237857 2.672549
-0.371212 0.237682 2.670588
-0.369082 0.238031 2.674510
-0.364259 0.236635 2.658824
-0.363200 0.237682 2.670588
-0.360265 0.237508 2.668628
-0.357596 0.237508 2.668628
-0.356492 0.238555 2.680392
-0.356141 0.240126 2.698040
-0.355241 0.241347 2.711765
-0.358392 0.245361 2.756863
-0.358671 0.247455 2.780392
-0.363420 0.252690 2.839216
-0.366806 0.257053 2.888236
-0.367129 0.259322 2.913726
-0.370588 0.263859 2.964706
-0.373945 0.268396 3.015686
-0.367071 0.265604 2.984314
-0.349733 0.255133 2.866667
-0.337376 0.248153 2.788235
-0.338824 0.251294 2.823529
-0.349067 0.261067 2.933333
-0.356082 0.268571 3.017647
-0.356735 0.271363 3.049020
-0.358463 0.275027 3.090196
-0.359431 0.278169 3.125490
-0.359659 0.280786 3.154902
-0.360271 0.283753 3.188235
-0.358620 0.284975 3.201961
-0.357812 0.286894 3.223529
-0.356098 0.288116 3.237255
-0.354357 0.289337 3.250980
-0.351741 0.289861 3.256863
-0.349324 0.290559 3.264706
-0.346059 0.290559 3.264706
-0.342794 0.290559 3.264706
-0.340345 0.291257 3.272549
-0.336467 0.290733 3.266666
-0.333200 0.290733 3.266666
-0.330527 0.291257 3.272549
-0.326667 0.290733 3.266666
-0.323400 0.290733 3.266666
-0.318788 0.289512 3.252941
-0.314965 0.288988 3.247059
-0.310400 0.287767 3.233333
-0.307167 0.287767 3.233333
-0.303196 0.287069 3.225490
-0.296871 0.284102 3.192157
-0.291875 0.282357 3.172549
-0.286204 0.279914 3.145098
-0.281118 0.277994 3.123529
-0.273457 0.273457 3.072549
-0.269004 0.272061 3.056863
-0.264071 0.270141 3.035294
-0.259518 0.268571 3.017647
-0.259667 0.271886 3.054902
-0.260565 0.276075 3.101961
-0.259904 0.278692 3.131372
-0.258380 0.280437 3.150980
-0.253800 0.278867 3.133333
-0.248941 0.276947 3.111765
-0.243661 0.274504 3.084314
-0.236906 0.270316 3.037255
-0.232812 0.269094 3.023529
-0.227702 0.266651 2.996078
-0.223088 0.264731 2.974510
-0.218663 0.262986 2.954902
-0.214276 0.261241 2.935294
-0.210776 0.260543 2.927451
-0.207431 0.260020 2.921569
-0.203961 0.259322 2.913726
-0.200641 0.258798 2.907843
-0.197200 0.258100 2.900000
-0.193906 0.257576 2.894118
-0.191400 0.258100 2.900000
-0.187608 0.256878 2.886274
-0.184722 0.256878 2.886274
-0.181465 0.256355 2.880392
-0.178584 0.256355 2.880392
-0.176063 0.256878 2.886274
-0.173176 0.256878 2.886274
-0.169943 0.256355 2.880392
-0.167063 0.256355 2.880392
-0.164182 0.256355 2.880392
-0.161302 0.256355 2.880392
-0.158422 0.256355 2.880392
-0.155541 0.256355 2.880392
-0.152661 0.256355 2.880392
-0.149475 0.255831 2.874510
-0.146900 0.256355 2.880392
-0.144412 0.257053 2.888236
-0.141812 0.257576 2.894118
-0.138635 0.257053 2.888236
-0.135747 0.257053 2.888236
-0.132859 0.257053 2.888236
-0.129971 0.257053 2.888236
-0.127082 0.257053 2.888236
-0.124194 0.257053 2.888236
-0.121306 0.257053 2.888236
-0.118418 0.257053 2.888236
-0.115529 0.257053 2.888236
-0.112641 0.257053 2.888236
-0.109753 0.257053 2.888236
-0.106865 0.257053 2.888236
-0.103765 0.256529 2.882353
-0.101088 0.257053 2.888236
-0.098467 0.257751 2.896079
-0.095571 0.257751 2.896079
-0.092675 0.257751 2.896079
-0.089778 0.257751 2.896079
-0.086882 0.257751 2.896079
-0.084384 0.258973 2.909804
-0.081310 0.258449 2.903922
-0.078776 0.259671 2.917647
-0.076216 0.260892 2.931373
-0.073971 0.263335 2.958824
-0.071812 0.266302 2.992157
-0.069947 0.270665 3.041177
-0.068243 0.276075 3.101961
-0.065553 0.277820 3.121569
-0.061451 0.273457 3.072549
-0.058006 0.271712 3.052941
-0.055341 0.273631 3.074510
-0.052967 0.277296 3.115686
-0.049976 0.277994 3.123529
-0.046941 0.278518 3.129412
-0.043510 0.276598 3.107843
-0.039433 0.269967 3.033333
-0.035059 0.260020 2.921569
-0.030261 0.244837 2.750980
-0.026098 0.232273 2.609804
-0.022376 0.221278 2.486274
-0.018933 0.210633 2.366667
-0.020753 0.263859 2.964706
-0.015929 0.236286 2.654902
-0.010922 0.194404 2.184314
-0.007773 0.172939 1.943137
-0.006512 0.193182 2.170588
-0.004188 0.186376 2.094118
-0.002008 0.178698 2.007843
0.000000 0.184631 2.074510
0.002094 0.186376 2.094118
0.004051 0.180269 2.025490
0.005953 0.176604 1.984314
0.006925 0.154092 1.731373
0.009951 0.177127 1.990196
0.012412 0.184108 2.068627
0.015029 0.191088 2.147059
0.017443 0.194055 2.180392
0.018512 0.183061 2.056863
0.020392 0.181490 2.039216
0.020167 0.163167 1.833333
0.022329 0.165610 1.860784
0.024700 0.169100 1.900000
0.025886 0.164563 1.849020
0.030206 0.179222 2.013726
0.033569 0.186725 2.098039
0.034533 0.180792 2.031373
0.033529 0.165784 1.862745
0.035876 0.168053 1.888235
0.036353 0.161771 1.817647
0.040971 0.173637 1.950980
0.042576 0.172241 1.935294
0.033643 0.130184 1.462745
0.047482 0.176080 1.978431
0.051324 0.182712 2.052941
0.050980 0.174510 1.960784
0.055853 0.184108 2.068627
0.056384 0.179222 2.013726
0.053224 0.163341 1.835294
0.058118 0.172416 1.937255
0.062486 0.179396 2.015686
0.069961 0.194578 2.186275
0.073700 0.198767 2.233333
0.070533 0.184631 2.074510
0.071373 0.181490 2.039216
0.073553 0.181839 2.043137
0.068124 0.163865 1.841177
0.077267 0.180967 2.033334
0.084959 0.193880 2.178432
0.076941 0.171194 1.923530
0.078543 0.170496 1.915686
0.076176 0.161422 1.813725
0.083133 0.172067 1.933333
0.089553 0.181141 2.035294
0.080118 0.158455 1.780392
0.091549 0.177127 1.990196
0.097225 0.184108 2.068627
0.093365 0.173114 1.945098
0.101459 0.184282 2.070589
0.115000 0.204700 2.300000
0.116700 0.203653 2.288235
0.120314 0.205922 2.313725
0.129902 0.218137 2.450981
0.128224 0.211331 2.374510
0.132431 0.214298 2.407843
0.125945 0.200163 2.249020
0.112212 0.175208 1.968628
0.096780 0.148508 1.668628
0.110249 0.166308 1.868628
0.129765 0.192484 2.162745
0.133841 0.195276 2.194118
0.122055 0.175208 1.968628
0.130571 0.184457 2.072549
0.140298 0.195102 2.192157
0.141598 0.193880 2.178432
0.119318 0.160898 1.807843
0.123096 0.163516 1.837255
0.135467 0.177302 1.992157
0.139082 0.179396 2.015686
0.145353 0.184806 2.076471
0.147151 0.184457 2.072549
0.165741 0.204875 2.301961
0.175629 0.214124 2.405882
0.176004 0.211680 2.378431
0.178235 0.211506 2.376471
0.181953 0.213076 2.394118
0.184347 0.213076 2.394118
0.178635 0.203827 2.290196
0.173335 0.195276 2.194118
0.167373 0.186202 2.092157
0.168512 0.185155 2.080392
0.160624 0.174335 1.958824
0.181461 0.194578 2.186275
0.171788 0.182014 2.045098
0.150833 0.157931 1.774510
0.174361 0.180443 2.027451
0.188329 0.192659 2.164706
0.192565 0.194753 2.188236
0.198418 0.198418 2.229412
0.189529 0.187424 2.105882
0.183784 0.179745 2.019608
0.164698 0.159327 1.790196
0.186182 0.178175 2.001961
0.208275 0.197196 2.215686
0.209559 0.196324 2.205882
0.165082 0.153045 1.719608
0.188294 0.172765 1.941177
0.224631 0.204002 2.292157
0.242647 0.218137 2.450981
0.209804 0.186726 2.098039
0.236459 0.208365 2.341177
0.239000 0.208539 2.343137
0.234678 0.202780 2.278431
0.206369 0.176604 1.984314
0.187559 0.158978 1.786275
0.218235 0.183235 2.058824
0.246729 0.205224 2.305882
0.273176 0.225118 2.529412
0.292590 0.238904 2.684314
0.292471 0.236635 2.658824
0.287947 0.230876 2.594118
0.310745 0.246931 2.774510
0.323269 0.254610 2.860784
0.341329 0.266476 2.994118
0.330343 0.255657 2.872549
0.291820 0.223896 2.515687
0.317047 0.241173 2.709804
0.333408 0.251469 2.825490
0.352100 0.263335 2.958823
0.365647 0.271188 3.047059
0.379371 0.279041 3.135294
0.389922 0.284451 3.196079
0.398182 0.288116 3.237255
0.404094 0.290035 3.258823
0.411520 0.293002 3.292157
0.414812 0.293002 3.292157
0.420594 0.294747 3.311765
0.423153 0.294224 3.305882
0.427218 0.294747 3.311765
0.430529 0.294747 3.311765
0.432043 0.293526 3.298039
0.435341 0.293526 3.298039
0.439422 0.294049 3.303922
0.441674 0.293351 3.296078
0.444176 0.292827 3.290196
0.445600 0.291606 3.276471
0.447802 0.290908 3.268627
0.448094 0.288988 3.247059
0.450251 0.288290 3.239216
0.449647 0.285847 3.211765
0.447053 0.282182 3.170588
0.444376 0.278518 3.129412
0.441337 0.274678 3.086275
0.436518 0.269792 3.031373
0.438127 0.268920 3.021569
0.453459 0.276424 3.105882
0.457141 0.276773 3.109804
0.453576 0.272759 3.064706
0.448753 0.268047 3.011765
0.444412 0.263684 2.962745
0.440269 0.259496 2.915686
0.436925 0.255831 2.874510
0.441000 0.256529 2.882353
0.444486 0.256878 2.886274
0.444029 0.254959 2.864706
0.445976 0.254435 2.858824
0.446680 0.253214 2.845098
0.446427 0.251469 2.825490
0.450188 0.251992 2.831373
0.452078 0.251469 2.825490
0.453641 0.250771 2.817647
0.455506 0.250247 2.811765
0.459276 0.250771 2.817647
0.462094 0.250771 2.817647
0.464912 0.250771 2.817647
0.467729 0.250771 2.817647
0.470547 0.250771 2.817647
0.473365 0.250771 2.817647
0.476182 0.250771 2.817647
0.479000 0.250771 2.817647
0.481818 0.250771 2.817647
0.484635 0.250771 2.817647
0.487453 0.250771 2.817647
0.490271 0.250771 2.817647
0.493088 0.250771 2.817647
0.495906 0.250771 2.817647
0.498724 0.250771 2.817647
0.501541 0.250771 2.817647
0.504359 0.250771 2.817647
0.507176 0.250771 2.817647
0.509994 0.250771 2.817647
0.512812 0.250771 2.817647
0.515629 0.250771 2.817647
0.518447 0.250771 2.817647
0.521265 0.250771 2.817647
-0.534147 0.246529 2.739216
-0.531408 0.246529 2.739216
-0.528669 0.246529 2.739216
-0.525929 0.246529 2.739216
-0.524314 0.247059 2.745098
-0.520451 0.246529 2.739216
-0.518824 0.247059 2.745098
-0.514973 0.246529 2.739216
-0.512233 0.246529 2.739216
-0.509494 0.246529 2.739216
-0.506755 0.246529 2.739216
-0.504016 0.246529 2.739216
-0.501277 0.246529 2.739216
-0.498537 0.246529 2.739216
-0.495798 0.246529 2.739216
-0.493059 0.246529 2.739216
-0.489267 0.246000 2.733333
-0.488976 0.247235 2.747059
-0.487271 0.247765 2.752941
-0.484518 0.247765 2.752941
-0.480735 0.247235 2.747059
-0.477988 0.247235 2.747059
-0.474224 0.246706 2.741177
-0.472494 0.247235 2.747059
-0.469747 0.247235 2.747059
-0.469333 0.248471 2.760784
-0.465578 0.247941 2.754902
-0.462824 0.247941 2.754902
-0.460069 0.247941 2.754902
-0.457314 0.247941 2.754902
-0.454559 0.247941 2.754902
-0.451804 0.247941 2.754902
-0.449049 0.247941 2.754902
-0.446294 0.247941 2.754902
-0.443539 0.247941 2.754902
-0.439843 0.247412 2.749020
-0.439276 0.248647 2.762745
-0.436514 0.248647 2.762745
-0.432827 0.248118 2.756863
-0.430988 0.248647 2.762745
-0.428225 0.248647 2.762745
-0.425463 0.248647 2.762745
-0.423600 0.249176 2.768627
-0.419937 0.248647 2.762745
-0.417174 0.248647 2.762745
-0.415294 0.249176 2.768627
-0.410773 0.248118 2.756863
-0.404243 0.245824 2.731373
-0.400647 0.245294 2.725490
-0.398494 0.245647 2.729412
-0.394627 0.244941 2.721569
-0.394447 0.246529 2.739216
-0.387782 0.244059 2.711765
-0.383122 0.242824 2.698040
-0.380147 0.242647 2.696078
-0.376353 0.241941 2.688235
-0.371484 0.240529 2.672549
-0.368541 0.240353 2.670588
-0.367214 0.241235 2.680392
-0.362667 0.240000 2.666667
-0.361324 0.240882 2.676471
-0.356808 0.239647 2.662745
-0.354145 0.239647 2.662745
-0.353035 0.240706 2.674510
-0.354214 0.243353 2.703922
-0.352529 0.244059 2.711765
-0.352347 0.245824 2.731373
-0.355639 0.250059 2.778431
-0.355600 0.252000 2.800000
-0.361200 0.258000 2.866667
-0.363725 0.261882 2.909804
-0.364220 0.264353 2.937255
-0.367553 0.268941 2.988235
-0.365761 0.269824 2.998039
-0.352561 0.262235 2.913725
-0.336941 0.252706 2.807843
-0.331800 0.250941 2.788235
-0.341969 0.260824 2.898039
-0.347100 0.267000 2.966667
-0.349137 0.270882 3.009804
-0.353118 0.276353 3.070588
-0.353400 0.279000 3.100000
-0.355618 0.283235 3.147059
-0.355545 0.285706 3.174510
-0.355418 0.288176 3.201961
-0.353078 0.288882 3.209804
-0.352006 0.290647 3.229412
-0.350259 0.291882 3.243137
-0.347855 0.292588 3.250980
-0.343980 0.292059 3.245098
-0.342176 0.293294 3.258823
-0.338918 0.293294 3.258823
-0.335659 0.293294 3.258823
-0.333800 0.294529 3.272549
-0.330527 0.294529 3.272549
-0.327255 0.294529 3.272549
-0.323982 0.294529 3.272549
-0.320710 0.294529 3.272549
-0.315535 0.292765 3.252941
-0.312282 0.292765 3.252941
-0.309588 0.293294 3.258823
-0.304486 0.291529 3.239216
-0.299971 0.290294 3.225490
-0.294400 0.288000 3.200000
-0.289951 0.286765 3.186275
-0.285000 0.285000 3.166667
-0.279914 0.283059 3.145098
-0.274353 0.280588 3.117647
-0.269871 0.279176 3.101961
-0.262890 0.275118 3.056863
-0.259000 0.274235 3.047059
-0.254471 0.272647 3.029412
-0.253557 0.274941 3.054902
-0.252914 0.277588 3.084314
-0.252847 0.280941 3.121569
-0.251137 0.282529 3.139216
-0.246604 0.280941 3.121569
-0.242718 0.280059 3.111765
-0.237039 0.277059 3.078432
-0.231875 0.274588 3.050980
-0.226324 0.271588 3.017647
-0.221710 0.269647 2.996078
-0.217712 0.268412 2.982353
-0.213741 0.267176 2.968627
-0.209798 0.265941 2.954902
-0.205471 0.264176 2.935294
-0.201588 0.262941 2.921569
-0.198133 0.262235 2.913726
-0.195220 0.262235 2.913726
-0.192306 0.262235 2.913726
-0.188500 0.261000 2.900000
-0.185224 0.260471 2.894118
-0.182329 0.260471 2.894118
-0.179435 0.260471 2.894118
-0.176541 0.260471 2.894118
-0.173176 0.259765 2.886274
-0.169943 0.259235 2.880392
-0.167404 0.259765 2.886274
-0.164182 0.259235 2.880392
-0.161631 0.259765 2.886274
-0.158422 0.259235 2.880392
-0.155541 0.259235 2.880392
-0.152661 0.259235 2.880392
-0.150494 0.260471 2.894118
-0.147600 0.260471 2.894118
-0.144706 0.260471 2.894118
-0.141812 0.260471 2.894118
-0.138635 0.259941 2.888236
-0.135747 0.259941 2.888236
-0.132859 0.259941 2.888236
-0.129971 0.259941 2.888236
-0.127082 0.259941 2.888236
-0.124194 0.259941 2.888236
-0.121306 0.259941 2.888236
-0.118418 0.259941 2.888236
-0.115529 0.259941 2.888236
-0.112641 0.259941 2.888236
-0.109753 0.259941 2.888236
-0.106865 0.259941 2.888236
