ply
format ascii 1.0
element vertex 1677
property float x
property float y
property float z
end_header
-0.442235 -0.103188 2.456863
-0.436269 -0.102365 2.437255
-0.430341 -0.101541 2.417647
-0.422371 -0.100224 2.386275
-0.417569 -0.099647 2.372549
-0.410735 -0.098576 2.347059
-0.403953 -0.097506 2.321569
-0.398239 -0.096682 2.301961
-0.392565 -0.095859 2.282353
-0.387265 -0.095118 2.264706
-0.378667 -0.093553 2.227451
-0.361527 -0.089847 2.139216
-0.330729 -0.082682 1.968628
-0.314353 -0.079059 1.882353
-0.314424 -0.079553 1.894118
-0.325471 -0.082847 1.972549
-0.328643 -0.084165 2.003922
-0.325041 -0.083753 1.994118
-0.319553 -0.082847 1.972549
-0.317265 -0.082765 1.970588
-0.315608 -0.082847 1.972549
-0.311141 -0.082188 1.956863
-0.307016 -0.081612 1.943137
-0.305688 -0.081776 1.947059
-0.302518 -0.081447 1.939216
-0.298147 -0.080788 1.923530
-0.295016 -0.080459 1.915686
-0.291000 -0.079882 1.901961
-0.288204 -0.079635 1.896079
-0.286012 -0.079553 1.894118
-0.282941 -0.079224 1.886275
-0.281055 -0.079224 1.886275
-0.276267 -0.078400 1.866667
-0.275265 -0.078647 1.872549
-0.273392 -0.078647 1.872549
-0.270382 -0.078318 1.864706
-0.266824 -0.077824 1.852941
-0.265812 -0.078071 1.858824
-0.264788 -0.078318 1.864706
-0.262924 -0.078318 1.864706
-0.261882 -0.078565 1.870588
-0.261102 -0.078894 1.878431
-0.258412 -0.078647 1.872549
-0.260031 -0.079718 1.898039
-0.258400 -0.079800 1.900000
-0.259147 -0.080624 1.919608
-0.260118 -0.081529 1.941177
-0.262610 -0.082929 1.974510
-0.265035 -0.084329 2.007843
-0.268165 -0.085976 2.047059
-0.269941 -0.087212 2.076471
-0.273935 -0.089188 2.123529
-0.275576 -0.090424 2.152941
-0.279649 -0.092482 2.201961
-0.284365 -0.094788 2.256863
-0.289706 -0.097341 2.317647
-0.294925 -0.099894 2.378431
-0.302435 -0.103271 2.458824
-0.303086 -0.104341 2.484314
-0.298941 -0.103765 2.470588
-0.292000 -0.102200 2.433333
-0.276500 -0.097588 2.323529
-0.262145 -0.093306 2.221569
-0.252582 -0.090671 2.158823
-0.248604 -0.090012 2.143137
-0.250069 -0.091329 2.174510
-0.255271 -0.094047 2.239216
-0.260565 -0.096847 2.305882
-0.263529 -0.098824 2.352941
-0.265747 -0.100553 2.394118
-0.266588 -0.101788 2.423530
-0.268012 -0.103271 2.458824
-0.269153 -0.104671 2.492157
-0.270227 -0.106071 2.525490
-0.270612 -0.107224 2.552941
-0.270941 -0.108376 2.580392
-0.271827 -0.109776 2.613726
-0.270022 -0.110106 2.621569
-0.269400 -0.110929 2.641177
-0.268145 -0.111506 2.654902
-0.266863 -0.112082 2.668628
-0.265553 -0.112659 2.682353
-0.264216 -0.113235 2.696078
-0.262090 -0.113482 2.701961
-0.261271 -0.114306 2.721569
-0.258549 -0.114306 2.721569
-0.256565 -0.114635 2.729412
-0.253835 -0.114635 2.729412
-0.251647 -0.114882 2.735294
-0.250161 -0.115459 2.749020
-0.246882 -0.115212 2.743137
-0.244139 -0.115212 2.743137
-0.242086 -0.115541 2.750980
-0.239847 -0.115788 2.756863
-0.237596 -0.116035 2.762745
-0.234333 -0.115788 2.756863
-0.231082 -0.115541 2.750980
-0.228820 -0.115788 2.756863
-0.226706 -0.116118 2.764706
-0.224418 -0.116365 2.770588
-0.221647 -0.116365 2.770588
-0.218876 -0.116365 2.770588
-0.216106 -0.116365 2.770588
-0.213335 -0.116365 2.770588
-0.210565 -0.116365 2.770588
-0.207794 -0.116365 2.770588
-0.205459 -0.116612 2.776471
-0.202253 -0.116365 2.770588
-0.199482 -0.116365 2.770588
-0.196712 -0.116365 2.770588
-0.193941 -0.116365 2.770588
-0.191576 -0.116612 2.776471
-0.188800 -0.116612 2.776471
-0.185629 -0.116365 2.770588
-0.182859 -0.116365 2.770588
-0.180088 -0.116365 2.770588
-0.177318 -0.116365 2.770588
-0.174918 -0.116612 2.776471
-0.172141 -0.116612 2.776471
-0.169006 -0.116365 2.770588
-0.166235 -0.116365 2.770588
-0.163465 -0.116365 2.770588
-0.160694 -0.116365 2.770588
-0.157924 -0.116365 2.770588
-0.155153 -0.116365 2.770588
-0.152382 -0.116365 2.770588
-0.149294 -0.116118 2.764706
-0.146841 -0.116365 2.770588
-0.144071 -0.116365 2.770588
-0.141300 -0.116365 2.770588
-0.138529 -0.116365 2.770588
-0.135759 -0.116365 2.770588
-0.132706 -0.116118 2.764706
-0.130218 -0.116365 2.770588
-0.127718 -0.116612 2.776471
-0.124676 -0.116365 2.770588
-0.121561 -0.116035 2.762745
-0.118545 -0.115788 2.756863
-0.115788 -0.115788 2.756863
-0.112710 -0.115459 2.749020
-0.109961 -0.115459 2.749020
-0.106447 -0.114635 2.729412
-0.103196 -0.114059 2.715686
-0.099755 -0.113235 2.696078
-0.096776 -0.112906 2.688235
-0.093402 -0.112082 2.668628
-0.090467 -0.111753 2.660784
-0.087806 -0.111753 2.660784
-0.084518 -0.110929 2.641177
-0.082302 -0.111506 2.654902
-0.079471 -0.111259 2.649020
-0.077390 -0.112082 2.668628
-0.074722 -0.112082 2.668628
-0.072212 -0.112329 2.674510
-0.069690 -0.112576 2.680392
-0.066520 -0.111753 2.660784
-0.063012 -0.110271 2.625490
-0.059124 -0.107965 2.570588
-0.054741 -0.104506 2.488235
-0.049741 -0.099482 2.368628
-0.047765 -0.100306 2.388235
-0.055473 -0.122624 2.919608
-0.052412 -0.122294 2.911765
-0.047000 -0.116118 2.764706
-0.041098 -0.107882 2.568628
-0.034059 -0.095365 2.270588
-0.027808 -0.083424 1.986275
-0.025567 -0.082600 1.966667
-0.023200 -0.081200 1.933333
-0.022194 -0.084741 2.017647
-0.021941 -0.092153 2.194118
-0.019818 -0.092482 2.201961
-0.017412 -0.091412 2.176471
-0.014947 -0.089682 2.135294
-0.012565 -0.087953 2.094118
-0.010039 -0.084329 2.007843
-0.007780 -0.081694 1.945098
-0.005541 -0.077576 1.847059
-0.003561 -0.074776 1.780392
-0.001702 -0.071482 1.701961
0.000000 -0.070576 1.680392
0.001714 -0.071976 1.713726
0.003345 -0.070247 1.672549
0.004912 -0.068765 1.637255
0.006424 -0.067447 1.605883
0.008451 -0.070988 1.690196
0.009224 -0.064565 1.537255
0.010843 -0.065059 1.549020
0.012220 -0.064153 1.527451
0.016200 -0.075600 1.800000
0.020667 -0.086800 2.066667
0.020253 -0.077329 1.841177
0.020918 -0.073212 1.743137
0.025057 -0.080953 1.927451
0.024624 -0.073871 1.758824
0.026324 -0.073706 1.754902
0.024878 -0.065306 1.554902
0.031733 -0.078400 1.866667
0.034976 -0.081612 1.943137
0.030922 -0.068353 1.627451
0.032706 -0.068682 1.635294
0.043194 -0.086388 2.056863
0.045682 -0.087212 2.076471
0.047037 -0.085894 2.045098
0.049459 -0.086553 2.060784
0.053627 -0.090094 2.145098
0.059239 -0.095694 2.278431
0.057176 -0.088941 2.117647
0.055890 -0.083835 1.996078
0.055043 -0.079718 1.898039
0.053824 -0.075353 1.794118
0.057320 -0.077659 1.849020
0.061616 -0.080871 1.925490
0.067165 -0.085482 2.035294
0.064867 -0.080129 1.907843
0.059637 -0.071565 1.703922
0.066071 -0.077082 1.835294
0.071461 -0.081118 1.931373
0.075031 -0.082929 1.974510
0.076624 -0.082518 1.964706
0.064627 -0.067859 1.615686
0.072755 -0.074529 1.774510
0.073871 -0.073871 1.758824
0.069475 -0.067859 1.615686
0.081529 -0.077824 1.852941
0.073941 -0.069012 1.643137
0.082078 -0.074941 1.784314
0.092525 -0.082682 1.968628
0.091294 -0.079882 1.901961
0.088969 -0.076259 1.815686
0.086765 -0.072882 1.735294
0.092900 -0.076506 1.821569
0.099514 -0.080376 1.913726
0.104753 -0.083012 1.976471
0.103765 -0.080706 1.921569
0.093931 -0.071729 1.707843
0.088392 -0.066294 1.578431
0.098912 -0.072882 1.735294
0.110541 -0.080047 1.905882
0.117306 -0.083506 1.988235
0.114118 -0.079882 1.901961
0.099275 -0.068353 1.627451
0.117922 -0.079882 1.901961
0.119824 -0.079882 1.901961
0.122102 -0.080129 1.907843
0.109990 -0.071071 1.692157
0.115953 -0.073788 1.756863
0.124541 -0.078071 1.858824
0.119467 -0.073788 1.756863
0.115406 -0.070247 1.672549
0.103627 -0.062176 1.480392
0.129610 -0.076671 1.825490
0.136800 -0.079800 1.900000
0.153443 -0.088282 2.101961
0.135231 -0.076753 1.827451
0.159706 -0.089435 2.129412
0.154533 -0.085400 2.033334
0.146753 -0.080047 1.905882
0.138871 -0.074776 1.780392
0.161563 -0.085894 2.045098
0.156392 -0.082106 1.954902
0.163429 -0.084741 2.017647
0.171235 -0.087706 2.088235
0.172022 -0.087047 2.072549
0.162729 -0.081365 1.937255
0.143667 -0.070988 1.690196
0.147886 -0.072224 1.719608
0.156259 -0.075435 1.796078
0.166855 -0.079635 1.896079
0.168053 -0.079306 1.888235
0.159176 -0.074282 1.768627
0.149169 -0.068847 1.639216
0.143773 -0.065635 1.562745
0.180712 -0.081612 1.943137
0.200533 -0.089600 2.133333
0.202853 -0.089682 2.135294
0.193506 -0.084659 2.015686
0.173649 -0.075188 1.790196
0.180051 -0.077165 1.837255
0.176453 -0.074859 1.782353
0.160392 -0.067365 1.603922
0.204971 -0.085235 2.029412
0.235800 -0.097094 2.311765
0.202365 -0.082518 1.964706
0.215545 -0.087047 2.072549
0.217000 -0.086800 2.066667
0.224263 -0.088859 2.115686
0.226169 -0.088776 2.113726
0.217271 -0.084494 2.011765
0.222488 -0.085729 2.041177
0.234020 -0.089353 2.127451
0.239194 -0.090506 2.154902
0.246400 -0.092400 2.200000
0.229767 -0.085400 2.033334
0.218612 -0.080541 1.917647
0.239471 -0.087459 2.082353
0.258839 -0.093718 2.231373
0.272771 -0.097918 2.331373
0.275796 -0.098165 2.337255
0.272067 -0.096024 2.286275
0.271059 -0.094871 2.258823
0.268573 -0.093224 2.219608
0.266486 -0.091741 2.184314
0.263365 -0.089929 2.141177
0.260400 -0.088200 2.100000
0.258088 -0.086718 2.064706
0.253482 -0.084494 2.011765
0.251261 -0.083094 1.978431
0.249725 -0.081941 1.950980
0.247376 -0.080541 1.917647
0.248275 -0.080212 1.909804
0.246845 -0.079141 1.884314
0.250282 -0.079635 1.896079
0.249571 -0.078812 1.876471
0.251447 -0.078812 1.876471
0.254118 -0.079059 1.882353
0.255200 -0.078812 1.876471
0.257882 -0.079059 1.882353
0.259765 -0.079059 1.882353
0.260829 -0.078812 1.876471
0.262706 -0.078812 1.876471
0.263753 -0.078565 1.870588
0.266459 -0.078812 1.876471
0.270298 -0.079388 1.890196
0.272188 -0.079388 1.890196
0.274078 -0.079388 1.890196
0.275110 -0.079141 1.884314
0.277859 -0.079388 1.890196
0.278878 -0.079141 1.884314
0.282808 -0.079718 1.898039
0.283824 -0.079471 1.892157
0.285716 -0.079471 1.892157
0.286714 -0.079224 1.886275
0.291600 -0.080047 1.905882
0.292600 -0.079800 1.900000
0.298451 -0.080871 1.925490
0.301600 -0.081200 1.933333
0.304765 -0.081529 1.941177
0.309184 -0.082188 1.956863
0.318624 -0.084165 2.003922
0.328157 -0.086141 2.050980
0.338100 -0.088200 2.100000
0.351318 -0.091082 2.168628
0.360837 -0.092976 2.213726
0.381702 -0.097753 2.327451
0.401824 -0.102282 2.435294
0.398726 -0.100882 2.401961
0.368382 -0.092647 2.205883
0.375200 -0.093800 2.233333
0.386049 -0.095941 2.284314
0.408667 -0.100965 2.403922
0.422471 -0.103765 2.470588
0.434722 -0.106153 2.527451
0.445051 -0.108047 2.572549
0.461612 -0.111424 2.652941
0.468382 -0.112412 2.676471
0.477271 -0.113894 2.711765
0.487271 -0.115624 2.752941
0.489675 -0.115541 2.750980
0.493127 -0.115706 2.754902
0.497294 -0.116035 2.762745
0.501477 -0.116365 2.770588
0.502106 -0.115871 2.758824
0.509171 -0.116859 2.782353
0.515200 -0.117600 2.800000
0.516912 -0.117353 2.794118
-0.539961 -0.112951 2.754902
-0.537588 -0.113031 2.756863
-0.532169 -0.112469 2.743137
-0.527155 -0.111986 2.731373
-0.519529 -0.110941 2.705883
-0.514951 -0.110539 2.696078
-0.511510 -0.110378 2.692157
-0.509188 -0.110459 2.694118
-0.502071 -0.109494 2.670588
-0.495000 -0.108529 2.647059
-0.489071 -0.107806 2.629412
-0.478461 -0.106037 2.586275
-0.472267 -0.105233 2.566667
-0.462882 -0.103706 2.529412
-0.455714 -0.102661 2.503922
-0.447531 -0.101375 2.472549
-0.441529 -0.100571 2.452941
-0.436620 -0.100008 2.439216
-0.427549 -0.098480 2.401961
-0.422718 -0.097918 2.388235
-0.412737 -0.096149 2.345098
-0.407990 -0.095586 2.331373
-0.397129 -0.093576 2.282353
-0.393490 -0.093255 2.274510
-0.391216 -0.093255 2.274510
-0.385588 -0.092451 2.254902
-0.382333 -0.092210 2.249020
-0.381078 -0.092451 2.254902
-0.370918 -0.090522 2.207843
-0.357249 -0.087708 2.139216
-0.328745 -0.081196 1.980392
-0.312529 -0.077659 1.894118
-0.310957 -0.077739 1.896079
-0.318969 -0.080231 1.956863
-0.324318 -0.082080 2.001961
-0.318843 -0.081196 1.980392
-0.315294 -0.080794 1.970588
-0.312076 -0.080473 1.962745
-0.308565 -0.080071 1.952941
-0.308151 -0.080473 1.962745
-0.304965 -0.080151 1.954902
-0.298755 -0.079025 1.927451
-0.296525 -0.078945 1.925490
-0.295200 -0.079106 1.929412
-0.290290 -0.078302 1.909804
-0.288973 -0.078463 1.913725
-0.287059 -0.078463 1.913725
-0.283100 -0.077900 1.900000
-0.278298 -0.077096 1.880392
-0.277282 -0.077337 1.886275
-0.273392 -0.076775 1.872549
-0.270667 -0.076533 1.866667
-0.268800 -0.076533 1.866667
-0.264971 -0.075971 1.852941
-0.263118 -0.075971 1.852941
-0.262094 -0.076212 1.858824
-0.261059 -0.076453 1.864706
-0.258376 -0.076212 1.858824
-0.256518 -0.076212 1.858824
-0.256539 -0.076775 1.872549
-0.254667 -0.076775 1.872549
-0.253059 -0.076855 1.874510
-0.253812 -0.077659 1.894118
-0.256090 -0.078945 1.925490
-0.255200 -0.079267 1.933333
-0.256863 -0.080392 1.960784
-0.259235 -0.081759 1.994118
-0.260782 -0.082884 2.021569
-0.263027 -0.084251 2.054902
-0.266202 -0.085939 2.096078
-0.270035 -0.087869 2.143137
-0.274755 -0.090120 2.198039
-0.276933 -0.091567 2.233333
-0.282900 -0.094300 2.300000
-0.287298 -0.096551 2.354902
-0.293010 -0.099284 2.421569
-0.295059 -0.100812 2.458824
-0.297967 -0.102661 2.503922
-0.292224 -0.101535 2.476471
-0.281718 -0.098722 2.407843
-0.267255 -0.094461 2.303922
-0.254353 -0.090682 2.211765
-0.243647 -0.087627 2.137255
-0.240402 -0.087225 2.127451
-0.241129 -0.088271 2.152941
-0.246376 -0.091004 2.219608
-0.250627 -0.093416 2.278431
-0.252837 -0.095104 2.319608
-0.254965 -0.096792 2.360785
-0.256380 -0.098239 2.396078
-0.258349 -0.099927 2.437255
-0.259412 -0.101294 2.470588
-0.259796 -0.102420 2.498039
-0.260731 -0.103786 2.531373
-0.261600 -0.105153 2.564706
-0.261808 -0.106278 2.592157
-0.261176 -0.107082 2.611765
-0.259341 -0.107404 2.619608
-0.258643 -0.108208 2.639216
-0.257906 -0.109012 2.658824
-0.256000 -0.109333 2.666667
-0.254637 -0.109896 2.680392
-0.253247 -0.110459 2.694118
-0.252376 -0.111263 2.713726
-0.249122 -0.111022 2.707843
-0.247663 -0.111584 2.721569
-0.244412 -0.111343 2.715686
-0.242918 -0.111906 2.729412
-0.240188 -0.111906 2.729412
-0.237971 -0.112147 2.735294
-0.236416 -0.112710 2.749020
-0.233167 -0.112469 2.743137
-0.230918 -0.112710 2.749020
-0.227680 -0.112469 2.743137
-0.226063 -0.113031 2.756863
-0.223306 -0.113031 2.756863
-0.220549 -0.113031 2.756863
-0.217792 -0.113031 2.756863
-0.215035 -0.113031 2.756863
-0.212278 -0.113031 2.756863
-0.209969 -0.113273 2.762745
-0.208235 -0.113835 2.776471
-0.205024 -0.113594 2.770588
-0.202682 -0.113835 2.776471
-0.199906 -0.113835 2.776471
-0.197129 -0.113835 2.776471
-0.194353 -0.113835 2.776471
-0.191576 -0.113835 2.776471
-0.188800 -0.113835 2.776471
-0.186024 -0.113835 2.776471
-0.182859 -0.113594 2.770588
-0.180088 -0.113594 2.770588
-0.177318 -0.113594 2.770588
-0.174547 -0.113594 2.770588
-0.171776 -0.113594 2.770588
-0.169006 -0.113594 2.770588
-0.166235 -0.113594 2.770588
-0.163465 -0.113594 2.770588
-0.160694 -0.113594 2.770588
-0.157924 -0.113594 2.770588
-0.155482 -0.113835 2.776471
-0.152382 -0.113594 2.770588
-0.149612 -0.113594 2.770588
-0.147153 -0.113835 2.776471
-0.144071 -0.113594 2.770588
-0.141600 -0.113835 2.776471
-0.138824 -0.113835 2.776471
-0.135759 -0.113594 2.770588
-0.132988 -0.113594 2.770588
-0.130494 -0.113835 2.776471
-0.127447 -0.113594 2.770588
-0.124676 -0.113594 2.770588
-0.121561 -0.113273 2.762745
-0.118798 -0.113273 2.762745
-0.115212 -0.112469 2.743137
-0.112951 -0.112951 2.754902
-0.109176 -0.111906 2.729412
-0.105606 -0.111022 2.707843
-0.102153 -0.110218 2.688235
-0.098884 -0.109575 2.672549
-0.095294 -0.108529 2.647059
-0.091892 -0.107645 2.625490
-0.088600 -0.106841 2.605882
-0.085347 -0.106037 2.586275
-0.082949 -0.106278 2.592157
-0.080175 -0.106037 2.586275
-0.078353 -0.107082 2.611765
-0.075912 -0.107324 2.617647
-0.073678 -0.107886 2.631372
-0.071418 -0.108449 2.645098
-0.068773 -0.108449 2.645098
-0.065490 -0.107404 2.619608
-0.062635 -0.107002 2.609804
-0.058357 -0.104027 2.537255
-0.055216 -0.102902 2.509804
-0.050318 -0.098239 2.396079
-0.048000 -0.098400 2.400000
-0.056031 -0.120910 2.949020
-0.051988 -0.118418 2.888236
-0.042933 -0.103545 2.525490
-0.033192 -0.085055 2.074510
-0.027206 -0.074363 1.813725
-0.021906 -0.064153 1.564706
-0.019984 -0.063027 1.537255
-0.018894 -0.064555 1.574510
-0.019606 -0.073076 1.782353
-0.020353 -0.083447 2.035294
-0.019024 -0.086663 2.113726
-0.016361 -0.083849 2.045098
-0.013286 -0.077820 1.898039
-0.010753 -0.073478 1.792157
-0.008676 -0.071147 1.735294
-0.006698 -0.068655 1.674510
-0.004965 -0.067851 1.654902
-0.003349 -0.068655 1.674510
-0.001702 -0.069780 1.701961
0.000000 -0.072112 1.758824
0.001998 -0.081920 1.998039
0.003702 -0.075890 1.850981
0.004882 -0.066725 1.627451
0.007380 -0.075649 1.845098
0.009784 -0.080231 1.956863
0.009447 -0.064555 1.574510
0.011694 -0.068494 1.670588
0.013976 -0.071629 1.747059
0.018671 -0.085055 2.074510
0.020353 -0.083447 2.035294
0.018290 -0.068173 1.662745
0.021906 -0.074845 1.825490
0.025745 -0.081196 1.980392
0.023278 -0.068173 1.662745
0.025471 -0.069620 1.698039
0.024722 -0.063349 1.545098
0.034067 -0.082161 2.003922
0.039035 -0.088914 2.168627
0.036398 -0.078543 1.915686
0.032118 -0.065841 1.605882
0.043441 -0.084814 2.068627
0.046459 -0.086582 2.111765
0.040408 -0.072031 1.756863
0.047294 -0.080794 1.970588
0.050588 -0.082965 2.023530
0.049400 -0.077900 1.900000
0.054265 -0.082402 2.009804
0.061435 -0.089959 2.194118
0.061639 -0.087145 2.125490
0.058235 -0.079588 1.941177
0.064431 -0.085216 2.078432
0.070463 -0.090280 2.201961
0.070724 -0.087869 2.143137
0.064933 -0.078302 1.909804
0.060735 -0.071147 1.735294
0.066212 -0.075408 1.839216
0.069429 -0.076935 1.876471
0.071604 -0.077257 1.884314
0.073565 -0.077337 1.886275
0.073255 -0.075086 1.831373
0.073318 -0.073318 1.788235
0.075929 -0.074122 1.807843
0.072763 -0.069378 1.692157
0.094902 -0.088431 2.156863
0.092029 -0.083849 2.045098
0.085506 -0.076212 1.858824
0.087641 -0.076453 1.864706
0.085176 -0.072755 1.774510
0.085606 -0.071629 1.747059
0.083333 -0.068333 1.666667
0.095700 -0.076935 1.876471
0.104000 -0.082000 2.000000
0.104337 -0.080714 1.968628
0.099000 -0.075167 1.833333
0.087784 -0.065439 1.596079
0.096298 -0.070504 1.719608
0.105059 -0.075569 1.843138
0.113271 -0.080071 1.952941
0.115224 -0.080071 1.952941
0.114471 -0.078222 1.907843
0.114345 -0.076855 1.874510
0.118286 -0.078222 1.907843
0.115006 -0.074845 1.825490
0.124361 -0.079669 1.943137
0.116490 -0.073478 1.792157
0.119447 -0.074202 1.809804
0.117710 -0.072031 1.756863
0.116533 -0.070263 1.713726
0.115676 -0.068735 1.676471
0.105000 -0.061500 1.500000
0.135596 -0.078302 1.909804
0.155859 -0.088753 2.164706
0.157022 -0.088190 2.150980
0.142776 -0.079106 1.929412
0.158529 -0.086663 2.113726
0.159153 -0.085859 2.094118
0.155661 -0.082884 2.021569
0.156612 -0.082322 2.007843
0.170702 -0.088592 2.160784
0.155451 -0.079669 1.943137
0.166447 -0.084251 2.054902
0.167859 -0.083929 2.047059
0.163233 -0.080633 1.966667
0.163553 -0.079829 1.947059
0.161000 -0.077659 1.894118
0.173012 -0.082482 2.011765
0.175876 -0.082884 2.021569
0.185145 -0.086261 2.103921
0.188122 -0.086663 2.113726
0.189706 -0.086422 2.107843
0.180037 -0.081116 1.978431
0.159827 -0.071227 1.737255
0.177976 -0.078463 1.913725
0.201639 -0.087949 2.145098
0.184598 -0.079669 1.943137
0.156988 -0.067047 1.635294
0.157863 -0.066725 1.627451
0.167369 -0.070022 1.707843
0.162476 -0.067288 1.641176
0.180196 -0.073880 1.801961
0.209922 -0.085216 2.078431
0.211400 -0.084975 2.072549
0.198729 -0.079106 1.929412
0.210039 -0.082804 2.019608
0.222559 -0.086904 2.119608
0.236110 -0.091325 2.227451
0.248827 -0.095345 2.325490
0.228706 -0.086824 2.117647
0.219069 -0.082402 2.009804
0.218275 -0.081357 1.984314
0.180212 -0.066565 1.623529
0.219827 -0.080473 1.962745
0.218688 -0.079347 1.935294
0.247671 -0.089075 2.172549
0.245108 -0.087386 2.131373
0.255200 -0.090200 2.200000
0.257859 -0.090361 2.203922
0.259137 -0.090039 2.196079
0.258067 -0.088914 2.168628
0.256235 -0.087547 2.135294
0.255049 -0.086422 2.107843
0.253808 -0.085296 2.080392
0.252271 -0.084090 2.050980
0.249459 -0.082482 2.011765
0.248039 -0.081357 1.984314
0.245082 -0.079749 1.945098
0.245035 -0.079106 1.929412
0.245208 -0.078543 1.915686
0.245353 -0.077980 1.901961
0.246490 -0.077739 1.896079
0.245818 -0.076935 1.876471
0.248471 -0.077176 1.882353
0.249571 -0.076935 1.876471
0.251447 -0.076935 1.876471
0.253324 -0.076935 1.876471
0.255200 -0.076935 1.876471
0.256271 -0.076694 1.870588
0.258141 -0.076694 1.870588
0.260012 -0.076694 1.870588
0.262706 -0.076935 1.876471
0.263753 -0.076694 1.870588
0.268408 -0.077498 1.890196
0.270298 -0.077498 1.890196
0.271341 -0.077257 1.884314
0.274078 -0.077498 1.890196
0.275110 -0.077257 1.884314
0.277859 -0.077498 1.890196
0.280910 -0.077820 1.898039
0.281931 -0.077578 1.892157
0.283824 -0.077578 1.892157
0.285716 -0.077578 1.892157
0.288800 -0.077900 1.900000
0.290700 -0.077900 1.900000
0.295620 -0.078704 1.919608
0.298755 -0.079025 1.927451
0.305882 -0.080392 1.960784
0.311229 -0.081276 1.982353
0.317549 -0.082402 2.009804
0.326106 -0.084090 2.050980
0.336941 -0.086341 2.105882
0.346308 -0.088190 2.150980
0.358941 -0.090843 2.215686
0.379375 -0.095426 2.327451
0.397459 -0.099365 2.423529
0.394706 -0.098078 2.392157
0.368455 -0.091004 2.219608
0.373294 -0.091647 2.235294
0.386729 -0.094380 2.301961
0.404275 -0.098078 2.392157
0.421000 -0.101535 2.476471
0.432529 -0.103706 2.529412
0.444502 -0.105957 2.584314
0.458959 -0.108771 2.652941
0.465706 -0.109735 2.676471
0.474559 -0.111182 2.711765
0.482447 -0.112388 2.741177
0.487965 -0.113031 2.756863
0.492118 -0.113353 2.764706
0.495584 -0.113514 2.768627
0.499765 -0.113835 2.776471
0.501831 -0.113675 2.772549
0.506745 -0.114157 2.784314
0.512759 -0.114880 2.801961
0.516643 -0.115122 2.807843
0.519451 -0.115122 2.807843
-0.541498 -0.110510 2.762745
-0.537588 -0.110275 2.756863
-0.533690 -0.110039 2.750980
-0.529804 -0.109804 2.745098
-0.523294 -0.109020 2.725490
-0.516824 -0.108235 2.705883
-0.514490 -0.108314 2.707843
-0.512153 -0.108392 2.709804
-0.503914 -0.107216 2.680392
-0.497933 -0.106510 2.662745
-0.491988 -0.105804 2.645098
-0.481363 -0.104078 2.601961
-0.471906 -0.102588 2.564706
-0.466829 -0.102039 2.550981
-0.457498 -0.100549 2.513726
-0.449306 -0.099294 2.482353
-0.442235 -0.098275 2.456863
-0.435216 -0.097255 2.431373
-0.428247 -0.096235 2.405882
-0.421329 -0.095216 2.380392
-0.415498 -0.094431 2.360785
-0.407647 -0.093176 2.329412
-0.400882 -0.092157 2.303922
-0.393151 -0.090902 2.272549
-0.389867 -0.090667 2.266667
-0.382235 -0.089412 2.235294
-0.376000 -0.088471 2.211765
-0.371800 -0.088000 2.200000
-0.370588 -0.088235 2.205882
-0.367727 -0.088078 2.201961
-0.364875 -0.087922 2.198039
-0.350059 -0.084863 2.121569
-0.328965 -0.080235 2.005883
-0.313216 -0.076863 1.921569
-0.305894 -0.075529 1.888236
-0.310951 -0.077255 1.931373
-0.317176 -0.079294 1.982353
-0.314571 -0.079137 1.978431
-0.312282 -0.079059 1.976471
-0.305996 -0.077961 1.949020
-0.305576 -0.078353 1.958823
-0.303314 -0.078275 1.956863
-0.298941 -0.077647 1.941177
-0.294900 -0.077098 1.927451
-0.292675 -0.077020 1.925490
-0.290453 -0.076941 1.923530
-0.286471 -0.076392 1.909804
-0.284269 -0.076314 1.907843
-0.281490 -0.076078 1.901961
-0.278435 -0.075765 1.894118
-0.274537 -0.075216 1.880392
-0.273510 -0.075451 1.886275
-0.271624 -0.075451 1.886275
-0.266933 -0.074667 1.866667
-0.265902 -0.074902 1.872549
-0.264029 -0.074902 1.872549
-0.260235 -0.074353 1.858824
-0.258376 -0.074353 1.858824
-0.257329 -0.074588 1.864706
-0.255465 -0.074588 1.864706
-0.252800 -0.074353 1.858824
-0.252794 -0.074902 1.872549
-0.251710 -0.075137 1.878431
-0.250875 -0.075451 1.886275
-0.250024 -0.075765 1.894118
-0.249927 -0.076314 1.907843
-0.249804 -0.076863 1.921569
-0.249653 -0.077412 1.935294
-0.251984 -0.078745 1.968628
-0.255743 -0.080549 2.013726
-0.256447 -0.081412 2.035294
-0.260049 -0.083216 2.080392
-0.262345 -0.084627 2.115686
-0.265294 -0.086275 2.156863
-0.266008 -0.087216 2.180392
-0.271894 -0.089882 2.247059
-0.273882 -0.091294 2.282353
-0.279533 -0.093961 2.349020
-0.285051 -0.096627 2.415686
-0.288371 -0.098588 2.464706
-0.288863 -0.099608 2.490196
-0.283892 -0.098745 2.468628
-0.276282 -0.096941 2.423529
-0.263445 -0.093255 2.331372
-0.252110 -0.090039 2.250980
-0.240718 -0.086745 2.168628
-0.234235 -0.085176 2.129412
-0.232961 -0.085490 2.137255
-0.234000 -0.086667 2.166667
-0.240225 -0.089804 2.245098
-0.242345 -0.091451 2.286275
-0.246235 -0.093804 2.345098
-0.246949 -0.094980 2.374510
-0.247402 -0.096078 2.401961
-0.247200 -0.096941 2.423530
-0.248935 -0.098588 2.464706
-0.250392 -0.100157 2.503922
-0.249247 -0.100706 2.517647
-0.249420 -0.101804 2.545098
-0.250678 -0.103373 2.584314
-0.249412 -0.103922 2.598039
-0.247559 -0.104235 2.605882
-0.247533 -0.105333 2.633333
-0.247271 -0.106353 2.658824
-0.245333 -0.106667 2.666667
-0.242131 -0.106431 2.660784
-0.241235 -0.107216 2.680392
-0.239776 -0.107765 2.694118
-0.238290 -0.108314 2.707843
-0.235582 -0.108314 2.707843
-0.234055 -0.108863 2.721569
-0.230833 -0.108627 2.715686
-0.229271 -0.109176 2.729412
-0.227029 -0.109412 2.735294
-0.223812 -0.109176 2.729412
-0.222194 -0.109725 2.743137
-0.219451 -0.109725 2.743137
-0.216708 -0.109725 2.743137
-0.214424 -0.109961 2.749020
-0.211675 -0.109961 2.749020
-0.209969 -0.110510 2.762745
-0.207206 -0.110510 2.762745
-0.204443 -0.110510 2.762745
-0.201251 -0.110275 2.756863
-0.198494 -0.110275 2.756863
-0.196155 -0.110510 2.762745
-0.193392 -0.110510 2.762745
-0.190629 -0.110510 2.762745
-0.187067 -0.110039 2.750980
-0.185104 -0.110510 2.762745
-0.181953 -0.110275 2.756863
-0.180471 -0.111059 2.776471
-0.177318 -0.110824 2.770588
-0.174918 -0.111059 2.776471
-0.171776 -0.110824 2.770588
-0.169006 -0.110824 2.770588
-0.166235 -0.110824 2.770588
-0.163465 -0.110824 2.770588
-0.160694 -0.110824 2.770588
-0.157924 -0.110824 2.770588
-0.155153 -0.110824 2.770588
-0.152382 -0.110824 2.770588
-0.149612 -0.110824 2.770588
-0.146841 -0.110824 2.770588
-0.144071 -0.110824 2.770588
-0.141300 -0.110824 2.770588
-0.138529 -0.110824 2.770588
-0.135759 -0.110824 2.770588
-0.132706 -0.110588 2.764706
-0.130218 -0.110824 2.770588
-0.127447 -0.110824 2.770588
-0.124059 -0.110275 2.756863
-0.121561 -0.110510 2.762745
-0.118545 -0.110275 2.756863
-0.115459 -0.109961 2.749020
-0.111906 -0.109176 2.729412
-0.108078 -0.108078 2.701961
-0.104535 -0.107216 2.680392
-0.100812 -0.106118 2.652941
-0.097143 -0.105020 2.625490
-0.093035 -0.103373 2.584314
-0.089490 -0.102275 2.556863
-0.085800 -0.100941 2.523530
-0.082629 -0.100157 2.503922
-0.079498 -0.099373 2.484314
-0.077014 -0.099373 2.484314
-0.075647 -0.100863 2.521569
-0.073524 -0.101412 2.535294
-0.071208 -0.101725 2.543137
-0.068771 -0.101882 2.547059
-0.066224 -0.101882 2.547059
-0.064020 -0.102431 2.560785
-0.060518 -0.100863 2.521569
-0.057320 -0.099686 2.492157
-0.054094 -0.098353 2.458824
-0.050400 -0.096000 2.400000
-0.048235 -0.096471 2.411765
-0.056739 -0.119451 2.986274
-0.051176 -0.113725 2.843137
-0.037167 -0.087451 2.186275
-0.027890 -0.069725 1.743137
-0.024882 -0.066353 1.658823
-0.021686 -0.061961 1.549020
-0.022100 -0.068000 1.700000
-0.023224 -0.077412 1.935294
-0.023122 -0.084078 2.101961
-0.021784 -0.087137 2.178432
-0.019024 -0.084549 2.113726
-0.016282 -0.081412 2.035294
-0.013259 -0.075765 1.894118
-0.010659 -0.071059 1.776471
-0.009686 -0.077490 1.937255
-0.007718 -0.077176 1.929412
-0.005041 -0.067216 1.680392
-0.003686 -0.073725 1.843137
-0.001982 -0.079294 1.982353
0.000000 -0.084784 2.119608
0.002002 -0.080078 2.001961
0.003553 -0.071059 1.776471
0.005276 -0.070353 1.758824
0.008329 -0.083294 2.082353
0.009735 -0.077882 1.947059
0.011541 -0.076941 1.923530
0.013231 -0.075608 1.890196
0.016925 -0.084627 2.115686
0.019059 -0.084706 2.117647
0.019804 -0.079216 1.980392
0.017686 -0.064314 1.607843
0.019247 -0.064157 1.603922
0.024471 -0.075294 1.882353
0.023471 -0.067059 1.676471
0.025324 -0.067529 1.688235
0.027953 -0.069882 1.747059
0.034867 -0.082039 2.050980
0.039671 -0.088157 2.203922
0.036845 -0.077569 1.939216
0.032353 -0.064706 1.617647
0.041218 -0.078510 1.962745
0.041024 -0.074588 1.864706
0.038108 -0.066275 1.656863
0.046118 -0.076863 1.921569
0.049118 -0.078588 1.964706
0.049808 -0.076627 1.915686
0.053894 -0.079843 1.996078
0.056494 -0.080706 2.017647
0.060275 -0.083137 2.078431
0.055412 -0.073882 1.847059
0.066863 -0.086275 2.156863
0.072157 -0.090196 2.254902
0.074865 -0.090745 2.268628
0.064800 -0.076235 1.905882
0.058333 -0.066667 1.666667
0.066706 -0.074118 1.852941
0.070808 -0.076549 1.913726
0.070337 -0.074039 1.850981
0.071500 -0.073333 1.833333
0.079216 -0.079216 1.980392
0.076453 -0.074588 1.864706
0.076424 -0.072784 1.819608
0.073522 -0.068392 1.709804
0.093608 -0.085098 2.127451
0.096441 -0.085725 2.143137
0.094796 -0.082431 2.060784
0.093078 -0.079216 1.980392
0.084706 -0.070588 1.764706
0.090890 -0.074196 1.854902
0.094118 -0.075294 1.882353
0.100700 -0.078980 1.974510
0.104816 -0.080627 2.015686
0.107143 -0.080863 2.021569
0.103129 -0.076392 1.909804
0.101480 -0.073804 1.845098
0.102008 -0.072863 1.821569
0.104835 -0.073569 1.839216
0.110996 -0.076549 1.913726
0.115339 -0.078196 1.954902
0.119882 -0.079922 1.998039
0.120924 -0.079294 1.982353
0.123757 -0.079843 1.996078
0.121676 -0.077255 1.931373
0.126620 -0.079137 1.978431
0.119804 -0.073725 1.843137
0.120482 -0.073020 1.825490
0.133343 -0.079608 1.990196
0.147067 -0.086510 2.162745
0.147335 -0.085412 2.135294
0.126412 -0.072235 1.805882
0.147708 -0.083216 2.080392
0.158965 -0.088314 2.207843
0.150580 -0.082510 2.062745
0.130298 -0.070431 1.760784
0.146765 -0.078275 1.956863
0.159302 -0.083843 2.096079
0.147357 -0.076549 1.913725
0.134588 -0.069020 1.725490
0.144678 -0.073255 1.831373
0.157804 -0.078902 1.972549
0.173118 -0.085490 2.137255
0.161267 -0.078667 1.966667
0.151027 -0.072784 1.819608
0.158118 -0.075294 1.882353
0.141833 -0.066745 1.668628
0.166267 -0.077333 1.933333
0.183894 -0.084549 2.113726
0.187561 -0.085255 2.131373
0.186376 -0.083765 2.094118
0.184765 -0.082118 2.052941
0.178431 -0.078431 1.960784
0.150627 -0.065490 1.637255
0.175788 -0.075608 1.890196
0.195557 -0.083216 2.080392
0.149951 -0.063137 1.578431
0.150212 -0.062588 1.564706
0.147592 -0.060863 1.521569
0.138353 -0.056471 1.411765
0.151800 -0.061333 1.533333
0.190980 -0.076392 1.909804
0.201802 -0.079922 1.998039
0.223600 -0.087686 2.192157
0.217108 -0.084314 2.107843
0.201475 -0.077490 1.937255
0.211647 -0.080627 2.015686
0.220729 -0.083294 2.082353
0.229316 -0.085725 2.143137
0.226800 -0.084000 2.100000
0.220351 -0.080863 2.021569
0.219569 -0.079843 1.996078
0.174988 -0.063059 1.576471
0.196769 -0.070275 1.756863
0.191214 -0.067686 1.692157
0.229788 -0.080627 2.015686
0.242627 -0.084392 2.109804
0.250651 -0.086431 2.160784
0.248912 -0.085098 2.127451
0.248725 -0.084314 2.107843
0.248267 -0.083451 2.086275
0.246353 -0.082118 2.052941
0.245084 -0.081020 2.025490
0.243761 -0.079922 1.998039
0.241659 -0.078588 1.964706
0.241922 -0.078039 1.950980
0.240441 -0.076941 1.923530
0.239894 -0.076157 1.903922
0.240802 -0.075843 1.896079
0.241945 -0.075608 1.890196
0.242065 -0.075059 1.876471
0.244706 -0.075294 1.882353
0.245818 -0.075059 1.876471
0.247694 -0.075059 1.876471
0.249571 -0.075059 1.876471
0.251447 -0.075059 1.876471
0.253324 -0.075059 1.876471
0.254400 -0.074824 1.870588
0.257077 -0.075059 1.876471
0.258953 -0.075059 1.876471
0.260829 -0.075059 1.876471
0.262706 -0.075059 1.876471
0.266518 -0.075608 1.890196
0.267573 -0.075373 1.884314
0.270298 -0.075608 1.890196
0.271341 -0.075373 1.884314
0.273226 -0.075373 1.884314
0.274251 -0.075137 1.878431
0.279012 -0.075922 1.898039
0.280039 -0.075686 1.892157
0.281931 -0.075686 1.892157
0.286765 -0.076471 1.911765
0.287788 -0.076235 1.905882
0.290886 -0.076549 1.913725
0.291900 -0.076314 1.907843
0.299847 -0.077882 1.947059
0.303922 -0.078431 1.960784
0.308329 -0.079059 1.976471
0.315847 -0.080471 2.011765
0.324365 -0.082118 2.052941
0.337018 -0.084784 2.119608
0.345412 -0.086353 2.158823
0.362724 -0.090118 2.252941
0.378318 -0.093412 2.335294
0.399190 -0.097961 2.449020
0.392635 -0.095765 2.394118
0.362676 -0.087922 2.198039
0.371059 -0.089412 2.235294
0.385737 -0.092392 2.309804
0.402212 -0.095765 2.394118
0.416535 -0.098588 2.464706
0.431000 -0.101412 2.535294
0.443259 -0.103686 2.592157
0.454282 -0.105647 2.641177
0.463029 -0.107059 2.676471
0.470824 -0.108235 2.705883
0.478333 -0.109333 2.733333
0.487278 -0.110745 2.768627
0.488312 -0.110353 2.758824
0.494910 -0.111216 2.780392
0.495935 -0.110824 2.770588
0.502235 -0.111608 2.790196
0.501831 -0.110902 2.772549
0.506745 -0.111373 2.784314
0.511682 -0.111843 2.796078
0.515561 -0.112078 2.801961
0.519451 -0.112314 2.807843
-0.541498 -0.107747 2.762745
-0.540265 -0.108053 2.770588
-0.536353 -0.107824 2.764706
-0.532453 -0.107594 2.758824
-0.524800 -0.106600 2.733333
-0.519445 -0.106065 2.719608
-0.514863 -0.105682 2.709804
-0.512524 -0.105759 2.711765
-0.507969 -0.105376 2.701961
-0.498667 -0.104000 2.666667
-0.493812 -0.103541 2.654902
-0.484265 -0.102088 2.617647
-0.477318 -0.101171 2.594118
-0.471135 -0.100406 2.574510
-0.463922 -0.099412 2.549020
-0.454629 -0.097959 2.511765
-0.446471 -0.096735 2.480392
-0.438024 -0.095435 2.447059
-0.429992 -0.094212 2.415686
-0.424106 -0.093447 2.396078
-0.417224 -0.092453 2.370588
-0.409363 -0.091229 2.339216
-0.401565 -0.090006 2.307843
-0.393829 -0.088782 2.276471
-0.386494 -0.087635 2.247059
-0.380894 -0.086871 2.227451
-0.372667 -0.085494 2.192157
-0.369480 -0.085265 2.186275
-0.366635 -0.085112 2.182353
-0.362488 -0.084653 2.170588
-0.362596 -0.085188 2.184314
-0.361706 -0.085494 2.192157
-0.355977 -0.084653 2.170588
-0.346455 -0.082894 2.125490
-0.324635 -0.078153 2.003922
-0.310004 -0.075094 1.925490
-0.303686 -0.074024 1.898039
-0.305218 -0.074865 1.919608
-0.311043 -0.076776 1.968628
-0.310614 -0.077159 1.978431
-0.308024 -0.077006 1.974510
-0.303010 -0.076241 1.954902
-0.301659 -0.076394 1.958823
-0.297300 -0.075782 1.943137
-0.294165 -0.075476 1.935294
-0.291933 -0.075400 1.933333
-0.287941 -0.074865 1.919608
-0.286606 -0.075018 1.923530
-0.283522 -0.074712 1.915686
-0.283335 -0.075171 1.927451
-0.278545 -0.074406 1.907843
-0.274647 -0.073871 1.894118
-0.271906 -0.073641 1.888235
-0.268896 -0.073335 1.880392
-0.267851 -0.073565 1.886275
-0.263200 -0.072800 1.866667
-0.260510 -0.072571 1.860784
-0.259467 -0.072800 1.866667
-0.255706 -0.072265 1.852941
-0.254659 -0.072494 1.858824
-0.252000 -0.072265 1.852941
-0.250941 -0.072494 1.858824
-0.249082 -0.072494 1.858824
-0.249831 -0.073259 1.878431
-0.247176 -0.073029 1.872549
-0.246331 -0.073335 1.880392
-0.245216 -0.073565 1.886275
-0.245100 -0.074100 1.900000
-0.244957 -0.074635 1.913725
-0.245533 -0.075400 1.933333
-0.246318 -0.076241 1.954902
-0.246814 -0.077006 1.974510
-0.248243 -0.078076 2.001961
-0.250341 -0.079376 2.035294
-0.254047 -0.081212 2.082353
-0.257659 -0.083047 2.129412
-0.258118 -0.083888 2.150980
-0.260167 -0.085265 2.186275
-0.264459 -0.087406 2.241177
-0.267724 -0.089241 2.288235
-0.271576 -0.091306 2.341177
-0.276902 -0.093906 2.407843
-0.278741 -0.095359 2.445098
-0.279620 -0.096506 2.474510
-0.278024 -0.096812 2.482353
-0.271841 -0.095512 2.449020
-0.261196 -0.092606 2.374510
-0.249418 -0.089241 2.288235
-0.235694 -0.085112 2.182353
-0.228686 -0.083353 2.137255
-0.222808 -0.081976 2.101961
-0.224618 -0.083429 2.139216
-0.226761 -0.085035 2.180392
-0.230033 -0.087100 2.233333
-0.235000 -0.089853 2.303922
-0.234875 -0.090694 2.325490
-0.237255 -0.092529 2.372549
-0.236435 -0.093141 2.388235
-0.238659 -0.094976 2.435294
-0.238316 -0.095818 2.456863
-0.239624 -0.097347 2.496078
-0.238990 -0.098112 2.515687
-0.239055 -0.099182 2.543137
-0.239065 -0.100253 2.570588
-0.238298 -0.101018 2.590196
-0.236957 -0.101553 2.603922
-0.236824 -0.102624 2.631372
-0.235414 -0.103159 2.645098
-0.233976 -0.103694 2.658824
-0.232512 -0.104229 2.672549
-0.230008 -0.104306 2.674510
-0.227333 -0.104306 2.674510
-0.225812 -0.104841 2.688235
-0.224263 -0.105376 2.701961
-0.222043 -0.105606 2.707843
-0.219971 -0.105912 2.715686
-0.217255 -0.105912 2.715686
-0.214539 -0.105912 2.715686
-0.213353 -0.106676 2.735294
-0.210165 -0.106447 2.729412
-0.207435 -0.106447 2.729412
-0.204706 -0.106447 2.729412
-0.202992 -0.106982 2.743137
-0.199820 -0.106753 2.737255
-0.197506 -0.106982 2.743137
-0.194345 -0.106753 2.737255
-0.192020 -0.106982 2.743137
-0.189276 -0.106982 2.743137
-0.186533 -0.106982 2.743137
-0.184710 -0.107518 2.756863
-0.182341 -0.107747 2.762745
-0.179578 -0.107747 2.762745
-0.176439 -0.107518 2.756863
-0.174053 -0.107747 2.762745
-0.170925 -0.107518 2.756863
-0.167810 -0.107288 2.750980
-0.165412 -0.107518 2.756863
-0.162308 -0.107288 2.750980
-0.159898 -0.107518 2.756863
-0.157141 -0.107518 2.756863
-0.154384 -0.107518 2.756863
-0.151627 -0.107518 2.756863
-0.148553 -0.107288 2.750980
-0.146114 -0.107518 2.756863
-0.143357 -0.107518 2.756863
-0.140600 -0.107518 2.756863
-0.137843 -0.107518 2.756863
-0.135086 -0.107518 2.756863
-0.132329 -0.107518 2.756863
-0.129573 -0.107518 2.756863
-0.127086 -0.107747 2.762745
-0.124324 -0.107747 2.762745
-0.121561 -0.107747 2.762745
-0.118461 -0.107441 2.754902
-0.114882 -0.106676 2.735294
-0.111263 -0.105835 2.713726
-0.107216 -0.104535 2.680392
-0.104153 -0.104153 2.670588
-0.098800 -0.101400 2.600000
-0.094894 -0.100024 2.564706
-0.089153 -0.096582 2.476471
-0.083794 -0.093371 2.394118
-0.079000 -0.090618 2.323529
-0.076159 -0.090006 2.307843
-0.073788 -0.089929 2.305882
-0.071118 -0.089471 2.294118
-0.069588 -0.090465 2.319608
-0.067212 -0.090388 2.317647
-0.066431 -0.092529 2.372549
-0.064482 -0.093141 2.388235
-0.064490 -0.096735 2.480392
-0.062353 -0.097271 2.494118
-0.059953 -0.097424 2.498039
-0.057229 -0.097041 2.488235
-0.053275 -0.094441 2.421569
-0.049288 -0.091535 2.347059
-0.046588 -0.090847 2.329412
-0.055994 -0.114935 2.947059
-0.049765 -0.107824 2.764706
-0.033033 -0.075782 1.943137
-0.026886 -0.065535 1.680392
-0.026235 -0.068212 1.749020
-0.025420 -0.070812 1.815686
-0.028218 -0.084653 2.170588
-0.027553 -0.089547 2.296078
-0.025084 -0.088935 2.280392
-0.021980 -0.085724 2.198039
-0.019306 -0.083659 2.145098
-0.016486 -0.080371 2.060784
-0.013273 -0.073947 1.896079
-0.012153 -0.078994 2.025490
-0.009461 -0.073794 1.892157
-0.007749 -0.075553 1.937255
-0.004518 -0.058729 1.505883
-0.003702 -0.072188 1.850981
-0.002008 -0.078306 2.007843
0.000000 -0.084653 2.170588
0.001963 -0.076547 1.962745
0.003110 -0.060641 1.554902
0.005671 -0.073718 1.890196
0.008125 -0.079224 2.031373
0.008922 -0.069588 1.784314
0.012412 -0.080676 2.068627
0.013876 -0.077312 1.982353
0.017129 -0.083506 2.141176
0.019500 -0.084500 2.166667
0.019000 -0.074100 1.900000
0.019433 -0.068900 1.766667
0.019694 -0.064006 1.641176
0.021259 -0.063776 1.635294
0.024871 -0.069282 1.776471
0.027176 -0.070659 1.811765
0.030651 -0.074712 1.915686
0.034833 -0.079912 2.049020
0.039106 -0.084729 2.172549
0.040608 -0.083353 2.137255
0.042000 -0.081900 2.100000
0.036359 -0.067524 1.731373
0.037012 -0.065612 1.682353
0.042302 -0.071729 1.839216
0.046118 -0.074941 1.921569
0.044559 -0.069512 1.782353
0.046443 -0.069665 1.786275
0.052147 -0.075324 1.931373
0.055506 -0.077312 1.982353
0.054304 -0.073029 1.872549
0.052941 -0.068824 1.764706
0.066863 -0.084118 2.156863
0.071278 -0.086871 2.227451
0.069235 -0.081824 2.098039
0.065200 -0.074788 1.917647
0.063755 -0.071041 1.821569
0.066282 -0.071806 1.841177
0.069284 -0.073029 1.872549
0.069220 -0.071041 1.821569
0.073106 -0.073106 1.874510
0.078745 -0.076776 1.968628
0.079106 -0.075247 1.929412
0.080624 -0.074865 1.919608
0.067114 -0.060871 1.560784
0.089122 -0.078994 2.025490
0.084706 -0.073412 1.882353
0.096871 -0.082129 2.105882
0.097963 -0.081288 2.084314
0.090824 -0.073794 1.892157
0.094253 -0.075018 1.923530
0.097255 -0.075859 1.945098
0.096200 -0.073565 1.886275
0.104510 -0.078382 2.009804
0.107247 -0.078918 2.023530
0.097200 -0.070200 1.800000
0.098784 -0.070047 1.796079
0.102886 -0.071653 1.837255
0.102376 -0.070047 1.796079
0.106447 -0.071576 1.835294
0.115571 -0.076394 1.958824
0.121412 -0.078918 2.023530
0.123555 -0.078994 2.025490
0.127161 -0.079988 2.050980
0.131065 -0.081135 2.080392
0.133020 -0.081059 2.078432
0.134716 -0.080829 2.072549
0.138729 -0.081976 2.101961
0.141357 -0.082282 2.109804
0.144933 -0.083124 2.131373
0.145847 -0.082435 2.113726
0.147137 -0.081976 2.101961
0.145341 -0.079835 2.047059
0.143294 -0.077618 1.990196
0.129539 -0.069206 1.774510
0.125510 -0.066147 1.696079
0.148676 -0.077312 1.982353
0.158259 -0.081212 2.082353
0.157171 -0.079606 2.041177
0.135506 -0.067753 1.737255
0.128878 -0.063624 1.631373
0.157333 -0.076700 1.966667
0.159935 -0.077006 1.974510
0.143098 -0.068059 1.745098
0.152492 -0.071653 1.837255
0.155812 -0.072341 1.854902
0.141500 -0.064924 1.664706
0.169302 -0.076776 1.968628
0.185429 -0.083124 2.131373
0.186353 -0.082588 2.117647
0.185329 -0.081212 2.082353
0.168882 -0.073182 1.876471
0.156306 -0.066988 1.717647
0.146839 -0.062247 1.596079
0.173053 -0.072571 1.860784
0.178416 -0.074024 1.898039
0.155353 -0.063776 1.635294
0.178824 -0.072647 1.862745
0.184490 -0.074176 1.901961
0.189467 -0.075400 1.933333
0.198000 -0.078000 2.000000
0.186078 -0.072571 1.860784
0.178829 -0.069053 1.770588
0.219600 -0.083965 2.152941
0.217310 -0.082282 2.109804
0.198212 -0.074329 1.905882
0.208765 -0.077541 1.988235
0.209714 -0.077159 1.978431
0.194278 -0.070812 1.815686
0.214306 -0.077388 1.984314
0.228259 -0.081671 2.094118
0.228843 -0.081135 2.080392
0.226571 -0.079606 2.041177
0.230149 -0.080141 2.054902
0.185896 -0.064159 1.645098
0.182624 -0.062476 1.601961
0.225265 -0.076394 1.958823
0.244055 -0.082053 2.103921
0.241571 -0.080524 2.064706
0.241322 -0.079759 2.045098
0.239400 -0.078459 2.011765
0.238824 -0.077618 1.990196
0.237729 -0.076624 1.964706
0.237780 -0.076012 1.949020
0.236594 -0.075018 1.923530
0.236816 -0.074482 1.909804
0.237010 -0.073947 1.896079
0.238906 -0.073947 1.896079
0.239806 -0.073641 1.888235
0.240188 -0.073182 1.876471
0.242824 -0.073412 1.882353
0.244706 -0.073412 1.882353
0.246588 -0.073412 1.882353
0.247694 -0.073182 1.876471
0.249571 -0.073182 1.876471
0.250659 -0.072953 1.870588
0.253324 -0.073182 1.876471
0.254400 -0.072953 1.870588
0.257077 -0.073182 1.876471
0.258141 -0.072953 1.870588
0.262737 -0.073718 1.890196
0.264627 -0.073718 1.890196
0.266518 -0.073718 1.890196
0.268408 -0.073718 1.890196
0.269457 -0.073488 1.884314
0.271341 -0.073488 1.884314
0.273226 -0.073488 1.884314
0.276255 -0.073794 1.892157
0.278147 -0.073794 1.892157
0.280039 -0.073794 1.892157
0.283976 -0.074329 1.905882
0.285000 -0.074100 1.900000
0.288973 -0.074635 1.913725
0.293867 -0.075400 1.933333
0.297000 -0.075706 1.941177
0.301961 -0.076471 1.960784
0.305441 -0.076853 1.970588
0.313835 -0.078459 2.011765
0.324159 -0.080524 2.064706
0.337067 -0.083200 2.133333
0.345435 -0.084729 2.172549
0.357647 -0.087176 2.235294
0.380086 -0.092071 2.360785
0.398965 -0.096047 2.462745
0.380973 -0.091153 2.337255
0.362729 -0.086259 2.211765
0.369147 -0.087253 2.237255
0.385706 -0.090618 2.323529
0.398180 -0.092988 2.384314
0.416376 -0.096659 2.478431
0.430453 -0.099335 2.547059
0.439667 -0.100865 2.586274
0.450635 -0.102776 2.635294
0.457318 -0.103694 2.658824
0.467100 -0.105300 2.700000
0.474576 -0.106371 2.727451
0.481078 -0.107212 2.749020
0.485553 -0.107594 2.758824
0.493171 -0.108665 2.786274
0.496306 -0.108741 2.788235
0.498392 -0.108588 2.784314
0.499059 -0.108129 2.772549
0.503251 -0.108435 2.780392
0.510314 -0.109353 2.803922
0.515271 -0.109812 2.815686
0.518086 -0.109812 2.815686
0.518363 -0.109276 2.801961
-0.543035 -0.105282 2.770588
-0.539118 -0.105059 2.764706
-0.535212 -0.104835 2.758824
-0.532453 -0.104835 2.758824
-0.528565 -0.104612 2.752941
-0.522067 -0.103867 2.733333
-0.516725 -0.103345 2.719608
-0.514376 -0.103420 2.721569
-0.508337 -0.102749 2.703922
-0.502700 -0.102153 2.688235
-0.496729 -0.101482 2.670588
-0.487167 -0.100067 2.633333
-0.480204 -0.099173 2.609804
-0.471853 -0.097980 2.578431
-0.464635 -0.097012 2.552941
-0.457469 -0.096043 2.527451
-0.448235 -0.094627 2.490196
-0.442235 -0.093882 2.470588
-0.433133 -0.092467 2.433333
-0.425147 -0.091275 2.401961
-0.419294 -0.090529 2.382353
-0.410392 -0.089114 2.345098
-0.402588 -0.087922 2.313725
-0.396882 -0.087176 2.294118
-0.389529 -0.086059 2.264706
-0.380894 -0.084643 2.227451
-0.377667 -0.084420 2.221569
-0.372463 -0.083749 2.203922
-0.365318 -0.082631 2.174510
-0.362488 -0.082482 2.170588
-0.355435 -0.081365 2.141176
-0.351676 -0.080992 2.131373
-0.352761 -0.081737 2.150980
-0.347094 -0.080918 2.129412
-0.346235 -0.081216 2.137255
-0.340941 -0.080471 2.117647
-0.326902 -0.077639 2.043137
-0.310518 -0.074212 1.952941
-0.298651 -0.071827 1.890196
-0.301071 -0.072871 1.917647
-0.306188 -0.074584 1.962745
-0.305441 -0.074882 1.970588
-0.303169 -0.074808 1.968628
-0.298200 -0.074063 1.949020
-0.295655 -0.073914 1.945098
-0.294302 -0.074063 1.949020
-0.291176 -0.073765 1.941177
-0.287190 -0.073243 1.927451
-0.283231 -0.072722 1.913725
-0.281894 -0.072871 1.917647
-0.279976 -0.072871 1.917647
-0.277775 -0.072796 1.915686
-0.274729 -0.072498 1.907843
-0.269176 -0.071529 1.882353
-0.267294 -0.071529 1.882353
-0.265135 -0.071455 1.880392
-0.263255 -0.071455 1.880392
-0.260284 -0.071157 1.872549
-0.258412 -0.071157 1.872549
-0.256539 -0.071157 1.872549
-0.254667 -0.071157 1.872549
-0.250941 -0.070635 1.858824
-0.249871 -0.070859 1.864706
-0.247224 -0.070635 1.858824
-0.246141 -0.070859 1.864706
-0.245304 -0.071157 1.872549
-0.244196 -0.071380 1.878431
-0.241559 -0.071157 1.872549
-0.242196 -0.071902 1.892157
-0.242794 -0.072647 1.911765
-0.239400 -0.072200 1.900000
-0.239951 -0.072945 1.919608
-0.241435 -0.073988 1.947059
-0.241900 -0.074733 1.966667
-0.242565 -0.075553 1.988235
-0.244610 -0.076820 2.021569
-0.245882 -0.077863 2.049020
-0.249200 -0.079576 2.094118
-0.248957 -0.080173 2.109804
-0.251665 -0.081737 2.150980
-0.252243 -0.082631 2.174510
-0.256157 -0.084643 2.227451
-0.259294 -0.086431 2.274510
-0.262337 -0.088220 2.321569
-0.266165 -0.090306 2.376471
-0.269012 -0.092094 2.423530
-0.271333 -0.093733 2.466667
-0.268867 -0.093733 2.466667
-0.266612 -0.093808 2.468628
-0.257220 -0.091349 2.403922
-0.247541 -0.088741 2.335294
-0.235941 -0.085388 2.247059
-0.227780 -0.083227 2.190196
-0.221349 -0.081663 2.149020
-0.218600 -0.081439 2.143137
-0.219031 -0.082408 2.168627
-0.220392 -0.083749 2.203922
-0.222653 -0.085463 2.249020
-0.223863 -0.086804 2.284314
-0.225573 -0.088369 2.325490
-0.225882 -0.089412 2.352941
-0.226324 -0.090529 2.382353
-0.227075 -0.091796 2.415686
-0.227212 -0.092839 2.443137
-0.227835 -0.094106 2.476471
-0.226608 -0.094627 2.490196
-0.227118 -0.095894 2.523530
-0.227561 -0.097161 2.556863
-0.225694 -0.097459 2.564706
-0.225347 -0.098427 2.590196
-0.225118 -0.099471 2.617647
-0.223167 -0.099769 2.625490
-0.221200 -0.100067 2.633333
-0.220194 -0.100812 2.652941
-0.217541 -0.100812 2.652941
-0.216000 -0.101333 2.666667
-0.213961 -0.101631 2.674510
-0.212371 -0.102153 2.688235
-0.209224 -0.101929 2.682353
-0.208051 -0.102675 2.701961
-0.205349 -0.102675 2.701961
-0.202206 -0.102451 2.696078
-0.200961 -0.103196 2.715686
-0.197816 -0.102973 2.709804
-0.194682 -0.102749 2.703922
-0.192814 -0.103196 2.715686
-0.191471 -0.103941 2.735294
-0.188329 -0.103718 2.729412
-0.185200 -0.103494 2.723529
-0.182871 -0.103718 2.729412
-0.179753 -0.103494 2.723529
-0.177412 -0.103718 2.729412
-0.174682 -0.103718 2.729412
-0.172818 -0.104239 2.743137
-0.170075 -0.104239 2.743137
-0.166973 -0.104016 2.737255
-0.164588 -0.104239 2.743137
-0.161845 -0.104239 2.743137
-0.159102 -0.104239 2.743137
-0.156359 -0.104239 2.743137
-0.153286 -0.104016 2.737255
-0.150873 -0.104239 2.743137
-0.147812 -0.104016 2.737255
-0.145386 -0.104239 2.743137
-0.142337 -0.104016 2.737255
-0.139600 -0.104016 2.737255
-0.137157 -0.104239 2.743137
-0.134125 -0.104016 2.737255
-0.131671 -0.104239 2.743137
-0.128927 -0.104239 2.743137
-0.125914 -0.104016 2.737255
-0.123176 -0.104016 2.737255
-0.119835 -0.103494 2.723529
-0.117112 -0.103494 2.723529
-0.113482 -0.102675 2.701961
-0.110700 -0.102600 2.700000
-0.106588 -0.101259 2.664706
-0.101629 -0.099024 2.605882
-0.097459 -0.097459 2.564706
-0.091775 -0.094255 2.480392
-0.088165 -0.093063 2.449020
-0.089765 -0.097459 2.564706
-0.090400 -0.101035 2.658824
-0.088582 -0.102004 2.684314
-0.085459 -0.101482 2.670588
