ply
format ascii 1.0
element vertex 1772
property float x
property float y
property float z
end_header
0.383373 0.258980 2.039216
0.417653 0.280645 2.209804
0.422471 0.282388 2.223530
0.405220 0.269439 2.121569
0.417506 0.276163 2.174510
0.454118 0.298824 2.352941
0.435929 0.285376 2.247059
0.403000 0.262467 2.066667
0.422361 0.273673 2.154902
0.422584 0.272427 2.145098
0.449188 0.288116 2.268628
0.447945 0.285875 2.250980
0.449412 0.285376 2.247059
0.475306 0.300318 2.364706
0.450341 0.283135 2.229412
0.450182 0.281641 2.217647
0.470000 0.292598 2.303922
0.450196 0.278902 2.196078
0.453200 0.279400 2.200000
0.456212 0.279898 2.203922
0.474729 0.289859 2.282353
0.477012 0.289859 2.282353
0.472706 0.285875 2.250980
0.488196 0.293843 2.313725
0.490094 0.293594 2.311765
0.442706 0.263961 2.078432
0.464506 0.275665 2.170588
0.475529 0.280894 2.211765
0.462494 0.271929 2.141176
0.452296 0.264708 2.084314
0.448824 0.261471 2.058824
0.451741 0.261969 2.062745
0.452510 0.261222 2.056863
0.450233 0.258731 2.037255
0.452271 0.258731 2.037255
0.452559 0.257735 2.029412
0.457224 0.259229 2.041177
0.458824 0.258980 2.039216
0.460863 0.258980 2.039216
0.461122 0.257984 2.031373
0.463153 0.257984 2.031373
0.469225 0.260225 2.049020
0.473078 0.261222 2.056863
0.484194 0.266202 2.096079
0.496753 0.271929 2.141176
0.502549 0.273922 2.156863
0.512047 0.277906 2.188235
0.511471 0.276412 2.176471
0.524753 0.282388 2.223530
0.539524 0.289112 2.276471
0.546933 0.291851 2.298039
0.556729 0.295835 2.329412
0.563765 0.298325 2.349020
0.572257 0.301563 2.374510
0.551855 0.289610 2.280392
0.515065 0.269190 2.119608
0.479388 0.249518 1.964706
0.493843 0.255992 2.015686
0.499235 0.257735 2.029412
0.490610 0.252257 1.986275
0.493082 0.252506 1.988235
0.512647 0.261471 2.058824
0.494608 0.251261 1.978431
0.511351 0.258731 2.037255
0.518329 0.261222 2.056863
0.466810 0.234327 1.845098
0.487082 0.243541 1.917647
0.524000 0.260973 2.054902
0.545129 0.270435 2.129412
0.552802 0.273175 2.150980
0.528141 0.259977 2.047059
0.516984 0.253502 1.996078
0.536314 0.261969 2.062745
0.564477 0.274669 2.162745
0.555337 0.269190 2.119608
0.533735 0.257735 2.029412
0.573035 0.275665 2.170588
0.571569 0.273922 2.156863
0.542431 0.258980 2.039216
0.554941 0.263961 2.078432
0.559647 0.265206 2.088235
0.546967 0.258233 2.033334
0.562235 0.264459 2.082353
0.576539 0.270186 2.127451
0.590400 0.275665 2.170588
0.618265 0.287618 2.264706
0.638796 0.296084 2.331372
0.658382 0.304053 2.394118
0.662400 0.304800 2.400000
0.644161 0.295337 2.325490
0.619231 0.282886 2.227451
0.617082 0.280894 2.211765
0.609961 0.276661 2.178432
0.627016 0.283384 2.231373
0.625929 0.281890 2.219608
0.608173 0.272926 2.149020
0.595843 0.266451 2.098039
0.594029 0.264708 2.084314
0.590506 0.262218 2.064706
0.590320 0.261222 2.056863
0.592376 0.261222 2.056863
0.592733 0.260475 2.050981
0.594216 0.260225 2.049020
0.597977 0.260973 2.054902
0.594878 0.258731 2.037255
0.600363 0.260225 2.049020
0.606447 0.261969 2.062745
0.608510 0.261969 2.062745
0.610573 0.261969 2.062745
0.618459 0.264459 2.082353
0.630475 0.268692 2.115686
0.647833 0.275167 2.166667
0.658824 0.278902 2.196079
0.643904 0.271680 2.139216
0.637161 0.267945 2.109804
0.698682 0.292847 2.305882
0.689067 0.287867 2.266667
0.682363 0.284131 2.237255
0.673200 0.279400 2.200000
0.671186 0.277657 2.186275
0.683035 0.281641 2.217647
0.693129 0.284878 2.243137
0.652824 0.267447 2.105882
0.667126 0.272427 2.145098
0.672941 0.273922 2.156863
0.654845 0.265704 2.092157
0.671098 0.271431 2.137255
0.681882 0.274918 2.164706
0.687145 0.276163 2.174510
0.727857 0.291602 2.296078
0.699600 0.279400 2.200000
0.661143 0.263214 2.072549
0.660706 0.262218 2.064706
0.682912 0.270186 2.127451
0.652208 0.257237 2.025490
0.661833 0.260225 2.049020
0.663882 0.260225 2.049020
0.635343 0.248273 1.954902
0.621318 0.242047 1.905882
0.612965 0.238063 1.874510
0.654714 0.253502 1.996078
0.616069 0.237814 1.872549
0.603059 0.232086 1.827451
0.649669 0.249269 1.962745
0.676369 0.258731 2.037255
0.707135 0.269688 2.123530
0.700745 0.266451 2.098039
0.669343 0.253751 1.998039
0.694400 0.262467 2.066667
0.751312 0.283135 2.229412
0.758843 0.285127 2.245098
0.745800 0.279400 2.200000
0.768000 0.286871 2.258824
0.720780 0.268443 2.113726
0.744353 0.276412 2.176471
0.733079 0.271431 2.137255
0.753428 0.278155 2.190196
0.713676 0.262716 2.068627
0.677753 0.248771 1.958823
0.734824 0.268941 2.117647
0.764918 0.279151 2.198039
0.750692 0.273175 2.150980
0.806373 0.292598 2.303922
0.780459 0.282388 2.223530
0.760596 0.274420 2.160784
0.736455 0.264957 2.086275
0.732988 0.262965 2.070589
0.721137 0.257984 2.031373
0.714094 0.254747 2.005883
0.718200 0.255494 2.011765
0.720212 0.255494 2.011765
0.718000 0.254000 2.000000
0.724941 0.255743 2.013726
0.736865 0.259229 2.041177
0.739616 0.259478 2.043137
0.749488 0.262218 2.064706
0.746557 0.260475 2.050981
0.758628 0.263961 2.078432
0.778647 0.270186 2.127451
0.794447 0.274918 2.164706
0.805992 0.278155 2.190196
0.850871 0.292847 2.305882
0.892353 0.306294 2.411765
0.843843 0.288863 2.274510
0.772447 0.263712 2.076471
0.783300 0.266700 2.100000
0.775133 0.263214 2.072549
0.805147 0.272676 2.147059
0.800659 0.270435 2.129412
0.862665 0.290606 2.288235
0.923506 0.310278 2.443137
0.860553 0.288365 2.270588
0.741373 0.247775 1.950980
0.765735 0.255245 2.009804
0.800702 0.266202 2.096079
0.808806 0.268194 2.111765
0.825977 0.273175 2.150980
0.834167 0.275167 2.166667
0.803788 0.264459 2.082353
0.805112 0.264210 2.080392
0.807192 0.264210 2.080392
0.795543 0.259727 2.045098
0.781529 0.254498 2.003922
0.770500 0.250265 1.970588
0.776314 0.251510 1.980392
0.779835 0.252008 1.984314
0.779502 0.251261 1.978431
0.776833 0.249767 1.966667
0.767153 0.246031 1.937255
0.774539 0.247775 1.950980
0.781953 0.249518 1.964706
0.787047 0.250514 1.972549
0.790588 0.251012 1.976471
0.813008 0.257486 2.027451
0.812671 0.256739 2.021569
0.812322 0.255992 2.015686
0.848400 0.266700 2.100000
0.837000 0.262467 2.066667
0.825533 0.258233 2.033334
0.840335 0.262218 2.064706
0.836000 0.260225 2.049020
0.881355 0.273673 2.154902
0.875471 0.271182 2.135294
0.845371 0.261222 2.056863
0.882165 0.271929 2.141176
0.914269 0.281143 2.213726
0.861282 0.264210 2.080392
0.890216 0.272427 2.145098
0.921726 0.281392 2.215686
0.896959 0.273175 2.150980
0.898290 0.272926 2.149020
0.851967 0.258233 2.033334
0.847412 0.256241 2.017647
0.839524 0.253253 1.994118
0.828278 0.249269 1.962745
0.864247 0.259478 2.043137
0.890400 0.266700 2.100000
0.881667 0.263463 2.074510
0.878729 0.261969 2.062745
0.863210 0.256739 2.021569
0.856000 0.254000 2.000000
0.851271 0.252008 1.984314
0.847353 0.250265 1.970588
0.840873 0.247775 1.950980
0.842824 0.247775 1.950980
0.844775 0.247775 1.950980
0.844173 0.247027 1.945098
0.848676 0.247775 1.950980
0.845498 0.246280 1.939216
0.850865 0.247276 1.947059
0.850235 0.246529 1.941177
0.858202 0.248273 1.954902
0.868784 0.250763 1.974510
0.879406 0.253253 1.994118
0.884867 0.254249 2.001961
0.892949 0.255992 2.015686
0.907153 0.259478 2.043137
0.915304 0.261222 2.056863
0.921733 0.262467 2.066667
0.911529 0.258980 2.039216
0.881067 0.249767 1.966667
0.859263 0.243043 1.913726
0.880588 0.248522 1.956863
0.910843 0.256490 2.019608
0.928816 0.260973 2.054902
0.926429 0.259727 2.045098
0.922243 0.257984 2.031373
0.928735 0.259229 2.041177
0.921835 0.256739 2.021569
0.929233 0.258233 2.033334
0.936655 0.259727 2.045098
0.945000 0.261471 2.058824
0.956079 0.263961 2.078432
0.970812 0.267447 2.105882
0.994659 0.273424 2.152941
1.014061 0.278155 2.190196
1.048094 0.286871 2.258824
1.095941 0.299322 2.356863
1.116573 0.304302 2.396079
1.168416 0.317749 2.501961
1.212212 0.328955 2.590196
1.173420 0.317749 2.501961
1.059804 0.286373 2.254902
0.989100 0.266700 2.100000
0.980094 0.263712 2.076471
1.028543 0.276163 2.174510
1.066035 0.285625 2.249020
1.068284 0.285625 2.249020
1.085467 0.289610 2.280392
1.131706 0.301314 2.372549
1.150949 0.305796 2.407843
1.198439 0.317749 2.501961
1.228235 0.324971 2.558824
1.243055 0.328208 2.584314
1.314631 0.346386 2.727451
1.377971 0.362324 2.852941
1.418784 0.372284 2.931373
1.419814 0.371786 2.927451
1.435129 0.375023 2.952941
1.563175 0.407645 3.209804
1.501318 0.390712 3.076471
1.442071 0.374525 2.949020
1.420039 0.368051 2.898039
1.392129 0.360082 2.835294
1.404612 0.362573 2.854902
1.408433 0.362822 2.856863
1.396761 0.359086 2.827451
1.399588 0.359086 2.827451
1.343090 0.343896 2.707843
1.364314 0.348627 2.745098
1.317259 0.335927 2.645098
1.257284 0.319990 2.519608
1.242157 0.315508 2.484314
1.199453 0.304053 2.394118
1.205784 0.305049 2.401961
1.200296 0.303057 2.386275
1.260988 0.317749 2.501961
1.278343 0.321484 2.531373
1.272937 0.319492 2.515687
1.216800 0.304800 2.400000
1.194298 0.298575 2.350981
1.181678 0.294839 2.321569
1.156000 0.287867 2.266667
1.133218 0.281641 2.217647
1.124392 0.278902 2.196079
1.105465 0.273673 2.154902
1.103588 0.272676 2.147059
1.104726 0.272427 2.145098
1.099788 0.270684 2.131373
1.100906 0.270435 2.129412
1.098973 0.269439 2.121569
1.090918 0.266949 2.101961
1.083843 0.264708 2.084314
1.078777 0.262965 2.070589
1.078800 0.262467 2.066667
1.084969 0.263463 2.074510
1.066494 0.258482 2.035294
1.031471 0.249518 1.964706
-0.018741 0.266541 2.082353
-0.017506 0.280094 2.188235
-0.015386 0.281349 2.198039
-0.013588 0.289882 2.264706
-0.011216 0.287122 2.243137
-0.008808 0.281851 2.201961
-0.006741 0.287624 2.247059
-0.004490 0.287373 2.245098
-0.002204 0.282102 2.203922
0.000000 0.282102 2.203922
0.002273 0.290886 2.272549
0.004557 0.291639 2.278431
0.006771 0.288878 2.256863
0.009404 0.300926 2.350981
0.012098 0.309710 2.419608
0.012600 0.268800 2.100000
0.013520 0.247216 1.931373
0.016533 0.264533 2.066667
0.020559 0.292392 2.284314
0.024196 0.309710 2.419608
0.027586 0.321004 2.507843
0.030965 0.330290 2.580392
0.036171 0.356141 2.782353
0.037196 0.340078 2.656863
0.040588 0.346353 2.705883
0.042102 0.336816 2.631372
0.047800 0.359906 2.811765
0.052271 0.371702 2.903922
0.057820 0.389522 3.043137
0.062627 0.400816 3.131373
0.065429 0.398808 3.115686
0.066690 0.388016 3.031373
0.067647 0.376471 2.941177
0.065318 0.348361 2.721569
0.074314 0.380486 2.972549
0.079325 0.390526 3.050981
0.080047 0.379482 2.964706
0.083286 0.380737 2.974510
0.085522 0.377475 2.949020
0.088059 0.375718 2.935294
0.090751 0.374714 2.927451
0.099075 0.396298 3.096079
0.101782 0.394792 3.084314
0.101133 0.380737 2.974510
0.100676 0.368188 2.876471
0.095365 0.339075 2.649020
0.097796 0.338322 2.643137
0.100812 0.339576 2.652941
0.101782 0.334055 2.609804
0.096000 0.307200 2.400000
0.096229 0.300424 2.347059
0.094624 0.288376 2.252941
0.090300 0.268800 2.100000
0.095161 0.276831 2.162745
0.096265 0.273820 2.139216
0.102282 0.284612 2.223529
0.118514 0.322761 2.521569
0.122071 0.325522 2.543137
0.119041 0.310965 2.429412
0.118137 0.302431 2.362745
0.116000 0.291137 2.274510
0.114094 0.280847 2.194118
0.113586 0.274322 2.143137
0.113506 0.269051 2.101961
0.113020 0.263027 2.054902
0.113537 0.259514 2.027451
0.114782 0.257757 2.013726
0.117137 0.258510 2.019608
0.119620 0.259514 2.027451
0.122471 0.261271 2.041177
0.125110 0.262526 2.050981
0.125216 0.258510 2.019608
0.126247 0.256502 2.003922
0.131137 0.262275 2.049020
0.129108 0.254243 1.986275
0.124882 0.242196 1.892157
0.133475 0.254996 1.992157
0.142267 0.267796 2.092157
0.143006 0.265286 2.072549
0.145765 0.266541 2.082353
0.143114 0.258008 2.015686
0.144988 0.257757 2.013726
0.147145 0.258008 2.015686
0.148580 0.257004 2.007843
0.150441 0.256753 2.005883
0.151851 0.255749 1.998039
0.153245 0.254745 1.990196
0.155082 0.254494 1.988235
0.156451 0.253490 1.980392
0.157804 0.252486 1.972549
0.158188 0.249976 1.952941
0.159498 0.248973 1.945098
0.162420 0.250478 1.956863
0.163882 0.249725 1.950980
0.165833 0.249725 1.950980
0.169976 0.252988 1.976471
0.173659 0.255498 1.996078
0.177035 0.257506 2.011765
0.179396 0.258008 2.015686
0.178765 0.254243 1.986275
0.184855 0.260016 2.031373
0.195184 0.271561 2.121569
0.191835 0.264031 2.062745
0.178416 0.242949 1.898039
0.188696 0.254243 1.986275
0.193318 0.257757 2.013726
0.194000 0.256000 2.000000
0.212526 0.277584 2.168628
0.211588 0.273569 2.137255
0.212157 0.271561 2.121569
0.225765 0.286118 2.235294
0.225800 0.283357 2.213726
0.231649 0.287875 2.249020
0.222071 0.273318 2.135294
0.229559 0.279843 2.186275
0.231329 0.279341 2.182353
0.229106 0.274071 2.141177
0.231247 0.274071 2.141177
0.227618 0.267294 2.088235
0.226902 0.264031 2.062745
0.235494 0.271561 2.121569
0.230149 0.263027 2.054902
0.228216 0.258510 2.019608
0.229118 0.257255 2.009804
0.232029 0.258259 2.017647
0.237914 0.262525 2.050980
0.239735 0.262275 2.049020
0.242478 0.263027 2.054902
0.243833 0.262275 2.049020
0.247294 0.263780 2.060784
0.248880 0.263278 2.056863
0.251176 0.263529 2.058824
0.256612 0.267043 2.086275
0.261859 0.270306 2.111765
0.271324 0.277835 2.170588
0.276459 0.280847 2.194118
0.278653 0.280847 2.194118
0.285365 0.285365 2.229412
0.286835 0.284612 2.223530
0.282177 0.277835 2.170588
0.277412 0.271059 2.117647
0.262188 0.254243 1.986275
0.274345 0.264031 2.062745
0.283502 0.270808 2.115686
0.292235 0.277082 2.164706
0.308800 0.290635 2.270588
0.293878 0.274573 2.145098
0.282224 0.261773 2.045098
0.288357 0.265537 2.074510
0.312392 0.285616 2.231373
0.301906 0.274071 2.141176
0.311843 0.281098 2.196078
0.304506 0.272565 2.129412
0.338541 0.300926 2.350981
0.345441 0.304941 2.382353
0.332651 0.291639 2.278431
0.325706 0.283608 2.215686
0.318055 0.275075 2.149020
0.315822 0.271310 2.119608
0.314706 0.268549 2.098039
0.311475 0.264031 2.062745
0.312047 0.262776 2.052941
0.314700 0.263278 2.056863
0.314341 0.261271 2.041177
0.316078 0.261020 2.039216
0.312000 0.256000 2.000000
0.315539 0.257255 2.009804
0.318169 0.257757 2.013726
0.319871 0.257506 2.011765
0.325020 0.260016 2.031373
0.333049 0.264784 2.068627
0.341471 0.269804 2.107843
0.355404 0.279090 2.180392
0.364980 0.284863 2.225490
0.376912 0.292392 2.284314
0.377243 0.290886 2.272549
0.333018 0.255247 1.994118
0.342588 0.261020 2.039216
0.338331 0.256251 2.001961
0.364667 0.274573 2.145098
0.383576 0.287122 2.243137
0.362549 0.269804 2.107843
0.362282 0.268047 2.094118
0.369494 0.271812 2.123529
0.364412 0.266541 2.082353
0.368565 0.268047 2.094118
0.375865 0.271812 2.123530
0.365773 0.263027 2.054902
0.352735 0.252235 1.970588
0.337765 0.240188 1.876471
0.354902 0.250980 1.960784
0.355435 0.249976 1.952941
0.366000 0.256000 2.000000
0.364753 0.253741 1.982353
0.340980 0.235922 1.843138
0.356682 0.245459 1.917647
0.354933 0.242949 1.898039
0.376369 0.256251 2.001961
0.396159 0.268298 2.096079
0.399373 0.269051 2.101961
0.403347 0.270306 2.111765
0.403953 0.269302 2.103922
0.414761 0.275075 2.149020
0.413486 0.272816 2.131373
0.406059 0.266541 2.082353
0.401992 0.262525 2.050980
0.412541 0.268047 2.094118
0.434047 0.280596 2.192157
0.441702 0.284110 2.219608
0.435686 0.278839 2.178432
0.448506 0.285616 2.231373
0.442420 0.280345 2.190196
0.447794 0.282353 2.205883
0.446000 0.279843 2.186275
0.448990 0.280345 2.190196
0.462894 0.287624 2.247059
0.475288 0.293898 2.296078
0.498792 0.306949 2.398039
0.491355 0.300926 2.350981
0.478882 0.291890 2.280392
0.481163 0.291890 2.280392
0.469726 0.283608 2.215686
0.446465 0.268298 2.096079
0.457373 0.273569 2.137255
0.472157 0.281098 2.196079
0.459529 0.272314 2.127451
0.454849 0.268298 2.096078
0.448824 0.263529 2.058824
0.447877 0.261773 2.045098
0.449922 0.261773 2.045098
0.451533 0.261522 2.043137
0.452271 0.260769 2.037255
0.455620 0.261522 2.043137
0.455906 0.260518 2.035294
0.459265 0.261271 2.041177
0.459533 0.260267 2.033334
0.458451 0.258510 2.019608
0.463153 0.260016 2.031373
0.467878 0.261522 2.043137
0.469922 0.261522 2.043137
0.476494 0.264031 2.062745
0.487655 0.269051 2.101961
0.496153 0.272565 2.129412
0.503329 0.275326 2.150980
0.505480 0.275326 2.150980
0.512722 0.278086 2.172549
0.522794 0.282353 2.205882
0.523133 0.281349 2.198039
0.543139 0.290886 2.272549
0.551059 0.293898 2.296078
0.559498 0.297161 2.321569
0.568937 0.300926 2.350981
0.564141 0.297161 2.321569
0.557851 0.292643 2.286275
0.546686 0.285616 2.231373
0.520941 0.271059 2.117647
0.506592 0.262526 2.050981
0.506698 0.261522 2.043137
0.513624 0.264031 2.062745
0.497549 0.254745 1.990196
0.498555 0.254243 1.986275
0.492141 0.249976 1.952941
0.499055 0.252486 1.972549
0.497043 0.250478 1.956863
0.473000 0.237427 1.854902
0.469835 0.234918 1.835294
0.492331 0.245208 1.915686
0.482612 0.239435 1.870588
0.484482 0.239435 1.870588
0.496549 0.244455 1.909804
0.486688 0.238682 1.864706
0.509616 0.248973 1.945098
0.518780 0.252486 1.972549
0.532659 0.258259 2.017647
0.544549 0.263027 2.054902
0.542953 0.261271 2.041177
0.547088 0.262275 2.049020
0.567529 0.271059 2.117647
0.590745 0.281098 2.196079
0.603000 0.285867 2.233333
0.618518 0.292141 2.282353
0.628800 0.295906 2.311765
0.642353 0.301176 2.352941
0.636647 0.297412 2.323529
0.637353 0.296659 2.317647
0.631012 0.292643 2.286275
0.616461 0.284863 2.225490
0.613235 0.282353 2.205882
0.606141 0.278086 2.172549
0.600627 0.274573 2.145098
0.618200 0.281600 2.200000
0.611000 0.277333 2.166667
0.604288 0.273318 2.135294
0.591945 0.266792 2.084314
0.591794 0.265788 2.076471
0.588263 0.263278 2.056863
0.590320 0.263278 2.056863
0.592376 0.263278 2.056863
0.592733 0.262526 2.050981
0.596490 0.263278 2.056863
0.598547 0.263278 2.056863
0.597169 0.261773 2.045098
0.606108 0.264784 2.068627
0.604718 0.263278 2.056863
0.606775 0.263278 2.056863
0.612314 0.264784 2.068627
0.614965 0.265035 2.070588
0.630475 0.270808 2.115686
0.649006 0.277835 2.170588
0.660000 0.281600 2.200000
0.633871 0.269553 2.105882
0.635384 0.269302 2.103922
0.683829 0.288878 2.256863
0.707545 0.297914 2.327451
0.734392 0.308204 2.407843
0.725400 0.303435 2.370588
0.712722 0.297161 2.321569
0.675788 0.280847 2.194118
0.670712 0.277835 2.170588
0.660118 0.272565 2.129412
0.680541 0.280094 2.188235
0.664988 0.272816 2.131372
0.640116 0.261773 2.045098
0.658784 0.268549 2.098039
0.642353 0.261020 2.039216
0.607216 0.245961 1.921569
0.672537 0.271561 2.121569
0.672788 0.270808 2.115686
0.629243 0.252486 1.972549
0.642510 0.257004 2.007843
0.653329 0.260518 2.035294
0.678094 0.269553 2.105882
0.691600 0.274071 2.141176
0.682306 0.269553 2.105882
0.651912 0.256753 2.005883
0.655196 0.257255 2.009804
0.637329 0.249475 1.949020
0.640565 0.249976 1.952941
0.630906 0.245459 1.917647
0.609529 0.236424 1.847059
0.594502 0.229898 1.796078
0.610620 0.235420 1.839216
0.674488 0.259263 2.025490
0.664071 0.254494 1.988235
0.632559 0.241694 1.888235
0.646965 0.246463 1.925490
0.711004 0.270055 2.109804
0.712451 0.269804 2.107843
0.727853 0.274824 2.147059
0.712000 0.268047 2.094118
0.683337 0.256502 2.003922
0.710153 0.265788 2.076471
0.749220 0.279592 2.184314
0.762871 0.283859 2.217647
0.696088 0.258259 2.017647
0.729992 0.270055 2.109804
0.751833 0.277333 2.166667
0.747177 0.274824 2.147059
0.782855 0.287122 2.243137
0.800196 0.292643 2.286275
0.770135 0.280847 2.194118
0.753004 0.273820 2.139216
0.731610 0.265286 2.072549
0.726047 0.262526 2.050981
0.716961 0.258510 2.019608
0.709906 0.255247 1.994118
0.716100 0.256753 2.005883
0.720914 0.257757 2.013726
0.720816 0.257004 2.007843
0.725647 0.258008 2.015686
0.737573 0.261522 2.043137
0.740326 0.261773 2.045098
0.745929 0.263027 2.054902
0.749412 0.263529 2.058824
0.764353 0.268047 2.094118
0.779365 0.272565 2.129412
0.801643 0.279592 2.184314
0.836298 0.290886 2.272549
0.866065 0.300424 2.347059
0.888000 0.307200 2.400000
0.785647 0.271059 2.117647
0.803812 0.276580 2.160784
0.838884 0.287875 2.249020
0.815467 0.279090 2.180392
0.828676 0.282855 2.209804
0.850792 0.289631 2.262745
0.899626 0.305443 2.386275
0.966494 0.327278 2.556863
0.896967 0.302933 2.366667
0.775647 0.261271 2.041177
0.777688 0.261271 2.041177
0.777482 0.260518 2.035294
0.726949 0.242949 1.898039
0.740894 0.246965 1.929412
0.794157 0.264031 2.062745
0.792435 0.262776 2.052941
0.788418 0.260769 2.037255
0.772957 0.254996 1.992157
0.755880 0.248722 1.943137
0.747882 0.245459 1.917647
0.759000 0.248471 1.941177
0.743263 0.242698 1.896079
0.757488 0.246714 1.927451
0.744737 0.241945 1.890196
0.751275 0.243451 1.901961
0.753177 0.243451 1.901961
0.743402 0.239686 1.872549
0.748396 0.240690 1.880392
0.748712 0.240188 1.876471
0.785098 0.251231 1.962745
0.809863 0.258510 2.019608
0.812671 0.258761 2.021569
0.834447 0.265035 2.070588
0.872957 0.276580 2.160784
0.881471 0.278588 2.176471
0.864541 0.272565 2.129412
0.821980 0.258510 2.019608
0.789600 0.247718 1.935294
0.907018 0.283859 2.217647
0.930941 0.290635 2.270588
0.809106 0.251984 1.968628
0.846620 0.263027 2.054902
0.929655 0.288125 2.250980
0.896188 0.277082 2.164706
0.930088 0.286871 2.241177
0.947012 0.291388 2.276471
0.887147 0.272314 2.127451
0.895831 0.274322 2.143137
0.847037 0.258761 2.021569
0.883647 0.269302 2.103922
0.878322 0.267043 2.086275
0.806765 0.244706 1.911765
0.870053 0.263278 2.056863
0.900377 0.271812 2.123530
0.886667 0.267043 2.086275
0.883741 0.265537 2.074510
0.870745 0.261020 2.039216
0.850126 0.254243 1.986275
0.848747 0.253239 1.978431
0.844824 0.251482 1.964706
0.840873 0.249725 1.950980
0.845365 0.250478 1.956863
0.844775 0.249725 1.950980
0.841620 0.248220 1.939216
0.848676 0.249725 1.950980
0.851482 0.249976 1.952941
0.850865 0.249224 1.947059
0.858824 0.250980 1.960784
0.861645 0.251231 1.962745
0.874824 0.254494 1.988235
0.885459 0.257004 2.007843
0.890933 0.258008 2.015686
0.899029 0.259765 2.029412
0.913247 0.263278 2.056863
0.922284 0.265286 2.072549
0.906867 0.260267 2.033334
0.878224 0.251482 1.964706
0.854714 0.244204 1.907843
0.862784 0.245961 1.921569
0.896471 0.254996 1.992157
0.929414 0.263780 2.060784
0.927929 0.262776 2.052941
0.923765 0.261020 2.039216
0.921353 0.259765 2.029412
0.930520 0.261773 2.045098
0.926306 0.260016 2.031373
0.908624 0.254494 1.988235
0.929471 0.259765 2.029412
0.934200 0.260518 2.035294
0.931726 0.259263 2.025490
0.942790 0.261773 2.045098
0.965671 0.267545 2.090196
0.986826 0.272816 2.131373
1.002604 0.276580 2.160784
1.030294 0.283608 2.215686
1.064490 0.292392 2.284314
1.107065 0.303435 2.370588
1.144306 0.312973 2.445098
1.174339 0.320502 2.503922
1.198961 0.326526 2.550981
1.129477 0.306949 2.398039
1.048580 0.284361 2.221569
1.027616 0.278086 2.172549
1.049306 0.283357 2.213726
1.043137 0.281098 2.196079
1.036000 0.278588 2.176471
1.073718 0.288125 2.250980
1.071282 0.286871 2.241177
1.119545 0.299169 2.337255
1.180235 0.314729 2.458824
1.199671 0.319247 2.494118
1.186098 0.314980 2.460784
1.207500 0.320000 2.500000
1.250808 0.330792 2.584314
1.234373 0.325773 2.545098
1.275035 0.335812 2.623529
1.390337 0.365427 2.854902
1.445820 0.379231 2.962745
1.464124 0.383247 2.994118
1.502667 0.392533 3.066667
1.535579 0.400314 3.127451
1.562824 0.406588 3.176471
1.505100 0.390776 3.052941
1.455847 0.377224 2.947059
1.437441 0.371702 2.903922
1.287655 0.332298 2.596078
1.255169 0.323263 2.525490
1.234259 0.317239 2.478431
1.234780 0.316737 2.474510
1.225490 0.313726 2.450981
1.119882 0.286118 2.235294
1.096526 0.279592 2.184314
1.160845 0.295404 2.307843
1.260988 0.320251 2.501961
1.242696 0.314980 2.460784
1.231267 0.311467 2.433333
1.199900 0.302933 2.366667
1.159435 0.292141 2.282353
1.135769 0.285616 2.231373
1.107000 0.277835 2.170588
1.088129 0.272565 2.129412
1.085239 0.271310 2.119608
1.073276 0.267796 2.092157
1.068314 0.266039 2.078432
1.057265 0.262776 2.052941
1.062353 0.263529 2.058824
1.069480 0.264784 2.068627
1.074596 0.265537 2.074510
1.082777 0.267043 2.086275
1.075686 0.264784 2.068627
1.083884 0.266290 2.080392
1.088012 0.266792 2.084314
1.095224 0.268047 2.094118
1.076769 0.263027 2.054902
1.042794 0.254243 1.986275
-0.018829 0.269888 2.092157
-0.017616 0.284053 2.201961
-0.015510 0.285824 2.215686
-0.013612 0.292653 2.268628
-0.011010 0.284053 2.201961
-0.008776 0.283041 2.194118
-0.006571 0.282535 2.190196
-0.004282 0.276212 2.141176
-0.002135 0.275453 2.135294
0.000000 0.278741 2.160784
0.002175 0.280512 2.174510
0.004443 0.286582 2.221569
0.006759 0.290629 2.252941
0.009318 0.300494 2.329412
0.011882 0.306565 2.376471
0.014494 0.311624 2.415686
0.016814 0.309853 2.401961
0.017616 0.284053 2.201961
0.019076 0.273429 2.119608
0.023431 0.302265 2.343137
0.028816 0.337929 2.619608
0.030894 0.332112 2.574510
0.034743 0.344759 2.672549
0.037498 0.345518 2.678431
0.040265 0.346277 2.684314
0.043733 0.352600 2.733333
0.047200 0.358165 2.776470
0.051106 0.366259 2.839216
0.055137 0.374353 2.901961
0.059255 0.382194 2.962745
0.063124 0.387759 3.005883
0.066647 0.390794 3.029412
0.067737 0.379918 2.945098
0.068518 0.368282 2.854902
0.072500 0.374100 2.900000
0.076522 0.379665 2.943137
0.076871 0.367271 2.847059
0.077467 0.356900 2.766667
0.083076 0.369547 2.864706
0.086000 0.369800 2.866667
0.086253 0.358924 2.782353
0.090290 0.363982 2.821569
0.091494 0.357659 2.772549
0.090733 0.344253 2.668628
0.090520 0.333629 2.586275
0.088447 0.316935 2.456863
0.090469 0.315418 2.445098
0.090529 0.307324 2.382353
0.091153 0.301506 2.337255
0.092392 0.297965 2.309804
0.094863 0.298471 2.313726
0.095200 0.292400 2.266667
0.092071 0.276212 2.141176
0.091278 0.267612 2.074510
0.101912 0.292147 2.264706
0.120592 0.338182 2.621569
0.119804 0.328824 2.549020
0.116612 0.313394 2.429412
0.115294 0.303529 2.352941
0.112941 0.291388 2.258823
0.111100 0.281018 2.178432
0.110729 0.274694 2.129412
0.110261 0.268371 2.080392
0.110541 0.264071 2.047059
0.110755 0.259771 2.013726
0.112329 0.258759 2.005883
0.114671 0.259518 2.011765
0.116341 0.258759 2.005883
0.118463 0.259012 2.007843
0.120941 0.260024 2.015686
0.123914 0.262047 2.031373
0.125824 0.261794 2.029412
0.125876 0.257747 1.998039
0.129506 0.261035 2.023530
0.132549 0.263059 2.039216
0.131094 0.256229 1.986275
0.126512 0.243582 1.888235
0.138267 0.262300 2.033334
0.144359 0.269888 2.092157
0.144255 0.265841 2.060784
0.144506 0.262553 2.035294
0.143859 0.257747 1.998039
0.146143 0.258253 2.001961
0.147855 0.257747 1.998039
0.150588 0.259012 2.007843
0.151553 0.257241 1.994118
0.153849 0.257747 1.998039
0.154624 0.255724 1.982353
0.156451 0.255471 1.980392
0.157333 0.253700 1.966667
0.158665 0.252688 1.958823
0.161588 0.254206 1.970588
0.161443 0.250918 1.945098
0.164376 0.252435 1.956863
0.166333 0.252435 1.956863
0.169808 0.254712 1.974510
0.172465 0.255724 1.982353
0.176863 0.259265 2.009804
0.180269 0.261288 2.025490
0.185471 0.265841 2.060784
0.187531 0.265841 2.060784
0.196086 0.274947 2.131373
0.193476 0.268371 2.080392
0.183392 0.251676 1.950980
0.204529 0.277729 2.152941
0.204988 0.275453 2.135294
0.208835 0.277729 2.152941
0.228090 0.300241 2.327451
0.219935 0.286582 2.221569
0.209412 0.270141 2.094118
0.209922 0.268118 2.078431
0.203800 0.257747 1.998039
0.219127 0.274441 2.127451
0.227780 0.282535 2.190196
0.240059 0.294929 2.286275
0.216365 0.263312 2.041177
0.204559 0.246618 1.911765
0.211341 0.252435 1.956863
0.225908 0.267359 2.072549
0.243078 0.285065 2.209804
0.239194 0.277982 2.154902
0.227733 0.262300 2.033334
0.221790 0.253194 1.962745
0.219729 0.248641 1.927451
0.218500 0.245100 1.900000
0.224949 0.250159 1.939216
0.227347 0.250665 1.943137
0.231604 0.253194 1.962745
0.232867 0.252435 1.956863
0.235059 0.252688 1.958823
0.237492 0.253194 1.962745
0.240651 0.254459 1.972549
0.247447 0.259518 2.011765
0.253106 0.263312 2.041177
0.259069 0.267359 2.072549
0.255459 0.261541 2.027451
0.254000 0.258000 2.000000
0.265286 0.267359 2.072549
0.258506 0.258506 2.003922
0.253118 0.251171 1.947059
0.267137 0.263059 2.039216
0.262188 0.256229 1.986275
0.289731 0.281018 2.178432
0.307412 0.295941 2.294118
0.309706 0.295941 2.294118
0.311467 0.295435 2.290196
0.310533 0.292400 2.266667
0.311988 0.291641 2.260784
0.306890 0.284812 2.207843
0.322549 0.297206 2.303922
0.312965 0.286329 2.219608
0.328549 0.298471 2.313726
0.320488 0.289112 2.241177
0.312000 0.279500 2.166667
0.351980 0.313141 2.427451
0.339808 0.300241 2.327451
0.331471 0.290882 2.254902
0.320086 0.278994 2.162745
0.319620 0.276718 2.145098
0.314706 0.270647 2.098039
0.313547 0.267865 2.076471
0.314133 0.266600 2.066667
0.315000 0.265588 2.058824
0.312831 0.262047 2.031373
0.316382 0.263312 2.041177
0.315059 0.260529 2.019608
0.316771 0.260276 2.017647
0.316620 0.258506 2.003922
0.321118 0.260529 2.019608
0.324078 0.261288 2.025490
0.331155 0.265335 2.056863
0.339247 0.270141 2.094118
0.350929 0.277729 2.152941
0.361122 0.284053 2.201961
0.372706 0.291388 2.258823
0.382776 0.297459 2.305882
0.337274 0.260529 2.019608
0.338965 0.260276 2.017647
0.334686 0.255471 1.980392
0.338000 0.256482 1.988235
0.367147 0.276971 2.147059
0.357490 0.268118 2.078431
0.363639 0.271153 2.101961
0.351071 0.260276 2.017647
0.363726 0.268118 2.078432
0.381678 0.279753 2.168628
0.367535 0.267865 2.076471
0.380431 0.275706 2.137255
0.380463 0.274188 2.125490
0.368824 0.264324 2.049020
0.374422 0.266853 2.068627
0.377204 0.267359 2.072549
0.357747 0.252182 1.954902
0.355733 0.249400 1.933333
0.385235 0.268624 2.082353
0.383306 0.265841 2.060784
0.366300 0.252688 1.958823
0.378949 0.260024 2.015686
0.356506 0.243329 1.886275
0.353922 0.240294 1.862745
0.397729 0.268624 2.082353
0.392282 0.263565 2.043137
0.387892 0.259265 2.009804
0.419192 0.278741 2.160784
0.401088 0.265335 2.056863
0.399686 0.263059 2.039216
0.409837 0.268371 2.080392
0.446471 0.290882 2.254902
0.423363 0.274441 2.127451
0.420784 0.271406 2.103922
0.416582 0.267359 2.072549
0.419843 0.268118 2.078432
0.450978 0.286582 2.221569
0.454000 0.287088 2.225490
0.477529 0.300494 2.329412
0.492784 0.308588 2.392157
0.487059 0.303529 2.352941
0.482478 0.299229 2.319608
0.485208 0.299482 2.321569
0.485471 0.298218 2.311765
0.472888 0.289112 2.241177
0.461827 0.281018 2.178432
0.453982 0.274947 2.131373
0.446463 0.269129 2.086275
0.464147 0.278488 2.158823
0.456565 0.272671 2.113726
0.454424 0.270141 2.094118
0.447114 0.264576 2.050981
0.447877 0.263818 2.045098
0.448196 0.262806 2.037255
0.450233 0.262806 2.037255
0.450965 0.262047 2.031373
0.456931 0.264324 2.049020
0.454588 0.261794 2.029412
0.457941 0.262553 2.035294
0.458204 0.261541 2.027451
0.461567 0.262300 2.033334
0.463153 0.262047 2.031373
0.465184 0.262047 2.031373
0.471275 0.264324 2.049020
0.479212 0.267612 2.074510
0.484471 0.269382 2.088235
0.487016 0.269635 2.090196
0.498282 0.274694 2.129412
0.494422 0.271406 2.103922
0.505780 0.276465 2.143137
0.509782 0.277476 2.150980
0.512867 0.277982 2.154902
0.525331 0.283547 2.198039
0.535059 0.287594 2.229412
0.550047 0.294424 2.282353
0.555177 0.295941 2.294118
0.553182 0.293665 2.276471
0.549718 0.290629 2.252941
0.549088 0.289112 2.241177
0.554224 0.290629 2.252941
0.557445 0.291135 2.256863
0.556298 0.289365 2.243137
0.534618 0.276971 2.147059
0.527451 0.272165 2.109804
0.508398 0.261288 2.025490
0.493624 0.252688 1.958823
0.485661 0.247629 1.919608
0.488576 0.248135 1.923530
0.475000 0.240294 1.862745
0.472345 0.238018 1.845098
0.470663 0.236247 1.831373
0.467941 0.233971 1.813725
0.485498 0.241812 1.874510
0.481765 0.239029 1.852941
0.499482 0.246871 1.913726
0.520404 0.256229 1.986275
0.543533 0.266600 2.066667
0.546118 0.266853 2.068627
0.554941 0.270141 2.094118
0.576333 0.279500 2.166667
0.585306 0.282788 2.192157
0.590651 0.284306 2.203922
0.604459 0.289871 2.247059
0.595588 0.284559 2.205882
0.611078 0.290882 2.254902
0.619733 0.293918 2.278431
0.625224 0.295435 2.290196
0.622678 0.293159 2.272549
0.616863 0.289365 2.243137
0.615318 0.287594 2.229412
0.608857 0.283547 2.198039
0.607239 0.281776 2.184314
0.599029 0.276971 2.147059
0.587451 0.270647 2.098039
0.600018 0.275453 2.135294
0.598282 0.273682 2.121569
0.594855 0.271153 2.101961
0.586377 0.266347 2.064706
0.590118 0.267106 2.070588
0.591627 0.266853 2.068627
0.590320 0.265335 2.056863
0.592376 0.265335 2.056863
0.594433 0.265335 2.056863
0.596490 0.265335 2.056863
0.598547 0.265335 2.056863
0.600604 0.265335 2.056863
0.600937 0.264576 2.050981
0.602988 0.264576 2.050981
0.608510 0.266094 2.062745
0.607090 0.264576 2.050981
0.613218 0.266347 2.064706
0.628137 0.271912 2.107843
0.640212 0.276212 2.141176
0.641177 0.275706 2.137255
0.623247 0.267106 2.070588
0.625318 0.267106 2.070589
0.658876 0.280512 2.174510
0.678337 0.287847 2.231373
0.702696 0.297206 2.303922
0.704400 0.296953 2.301961
0.719945 0.302518 2.345098
0.722894 0.302771 2.347059
0.712518 0.297459 2.305882
0.686255 0.285571 2.213726
0.665906 0.276212 2.141176
0.655200 0.270900 2.100000
0.646867 0.266600 2.066667
0.666788 0.273935 2.123529
0.654706 0.268118 2.078432
0.618369 0.252435 1.956863
0.641459 0.261035 2.023530
0.600459 0.243582 1.888235
0.614231 0.248388 1.925490
0.618039 0.249147 1.931373
0.585982 0.235488 1.825490
0.633267 0.253700 1.966667
0.663733 0.265082 2.054902
0.660706 0.263059 2.039216
0.658922 0.261541 2.027451
0.669898 0.265082 2.054902
0.630918 0.248894 1.929412
0.636063 0.250159 1.939216
0.688320 0.269888 2.092157
0.674882 0.263818 2.045098
0.636688 0.248135 1.923530
0.658792 0.255976 1.984314
0.655553 0.253953 1.968628
0.635255 0.245353 1.901961
0.664745 0.255976 1.984314
0.676612 0.259771 2.013726
0.712326 0.272671 2.113726
0.705161 0.269129 2.086275
0.727853 0.276971 2.147059
0.731333 0.277476 2.150980
0.692029 0.261794 2.029412
0.754412 0.284559 2.205882
0.754600 0.283800 2.200000
0.745333 0.279500 2.166667
0.723147 0.270394 2.096078
0.768663 0.286582 2.221569
0.764761 0.284306 2.203922
0.721247 0.267359 2.072549
0.778065 0.287594 2.229412
0.777549 0.286582 2.221569
0.757747 0.278488 2.158823
0.745412 0.273176 2.117647
0.726765 0.265588 2.058824
0.719800 0.262300 2.033334
0.716961 0.260529 2.019608
0.714792 0.259012 2.007843
0.716800 0.259012 2.007843
0.714596 0.257494 1.996078
0.723631 0.260024 2.015686
0.730588 0.261794 2.029412
0.738280 0.263818 2.045098
0.738906 0.263312 2.041177
0.746641 0.265335 2.056863
0.756549 0.268118 2.078432
0.769363 0.271912 2.107843
0.787259 0.277476 2.150980
0.813876 0.286076 2.217647
0.852173 0.298724 2.315686
0.889218 0.310865 2.409804
0.835039 0.291135 2.256863
0.778373 0.270647 2.098039
0.814753 0.282535 2.190196
0.849855 0.293918 2.278431
0.844800 0.291388 2.258823
0.850735 0.292653 2.268628
0.873647 0.299735 2.323529
0.885580 0.303024 2.349020
0.945741 0.322753 2.501961
0.910343 0.309853 2.401961
0.821098 0.278741 2.160784
0.789641 0.267359 2.072549
0.773737 0.261288 2.025490
0.770506 0.259518 2.011765
0.764235 0.256735 1.990196
0.780569 0.261541 2.027451
0.832549 0.278235 2.156863
0.827876 0.275959 2.139216
0.778282 0.258759 2.005883
0.761982 0.252688 1.958824
0.760882 0.251676 1.950980
0.759767 0.250665 1.943137
0.745569 0.245353 1.901961
0.775982 0.254712 1.974510
0.746282 0.244341 1.894118
0.740431 0.241812 1.874510
0.743859 0.242318 1.878431
0.752743 0.244594 1.896079
0.740592 0.240041 1.860784
0.760447 0.245859 1.905882
0.770196 0.248388 1.925490
0.767404 0.246871 1.913725
0.819765 0.263059 2.039216
0.841559 0.269382 2.088235
0.855529 0.273176 2.117647
0.821912 0.261794 2.029412
0.807224 0.256482 1.988235
0.844326 0.267612 2.074510
0.841600 0.266094 2.062745
0.955135 0.301253 2.335294
0.971941 0.305806 2.370588
0.834088 0.261794 2.029412
0.849851 0.266094 2.062745
0.969335 0.302771 2.347059
0.954635 0.297459 2.305882
0.969147 0.301253 2.335294
0.922541 0.286076 2.217647
0.904318 0.279753 2.168628
0.887635 0.273935 2.123530
0.856075 0.263565 2.043137
0.885294 0.271912 2.107843
0.864288 0.264829 2.052941
0.802628 0.245353 1.901961
0.909865 0.277476 2.150980
0.892894 0.271659 2.105882
0.886667 0.269129 2.086275
0.877894 0.265841 2.060784
0.862373 0.260529 2.019608
0.850126 0.256229 1.986275
0.851271 0.255976 1.984314
0.844824 0.253447 1.964706
0.840873 0.251676 1.950980
0.840282 0.250918 1.945098
0.839680 0.250159 1.939216
0.850129 0.252688 1.958823
0.852088 0.252688 1.958823
0.857467 0.253700 1.966667
0.854292 0.252182 1.954902
0.862259 0.253953 1.968628
0.870253 0.255724 1.982353
0.883451 0.259012 2.007843
0.886324 0.259265 2.009804
0.889200 0.259518 2.011765
0.913796 0.266094 2.062745
0.924565 0.268624 2.082353
0.912686 0.264576 2.050981
0.865765 0.250412 1.941177
0.858065 0.247629 1.919608
0.879310 0.253194 1.962745
0.875990 0.251676 1.950980
0.893824 0.256229 1.986275
0.926761 0.265082 2.054902
0.921726 0.263059 2.039216
0.933535 0.265841 2.060784
0.932035 0.264829 2.052941
0.916245 0.259771 2.013726
0.917365 0.259518 2.011765
0.913104 0.257747 1.998039
0.923184 0.260024 2.015686
0.910800 0.255976 1.984314
0.921804 0.258506 2.003922
0.923808 0.258506 2.003922
0.935777 0.261288 2.025490
0.961406 0.267865 2.076471
0.973490 0.270647 2.098039
1.002941 0.278235 2.156863
1.024286 0.283547 2.198039
1.046629 0.289112 2.241177
1.092000 0.301000 2.333333
1.129278 0.310612 2.407843
1.147353 0.314912 2.441176
1.194124 0.327053 2.535294
1.204063 0.329076 2.550981
1.148184 0.313141 2.427451
1.050235 0.285824 2.215686
1.004951 0.272924 2.115686
1.035067 0.280512 2.174510
1.072782 0.290124 2.249020
1.071282 0.289112 2.241177
1.088551 0.293159 2.272549
1.093647 0.293918 2.278431
1.118561 0.299988 2.325490
1.125612 0.301253 2.335294
1.135524 0.303276 2.350981
1.145467 0.305300 2.366667
1.164000 0.309600 2.400000
1.158777 0.307576 2.384314
1.205086 0.319212 2.474510
1.205647 0.318706 2.470588
1.206200 0.318200 2.466667
1.228843 0.323512 2.507843
1.264084 0.332112 2.574510
1.269553 0.332871 2.580392
1.234433 0.323006 2.503922
1.215628 0.317441 2.460784
1.208382 0.314912 2.441176
1.168031 0.303782 2.354902
1.179157 0.306059 2.372549
1.133682 0.293665 2.276471
1.131067 0.292400 2.266667
1.144118 0.295182 2.288235
1.133635 0.291894 2.262745
1.209722 0.310865 2.409804
1.236788 0.317188 2.458824
1.224424 0.313394 2.429412
1.227843 0.313647 2.431373
1.207455 0.307829 2.386275
1.165106 0.296447 2.298039
1.126565 0.286076 2.217647
1.096845 0.277982 2.154902
1.075000 0.271912 2.107843
1.062079 0.268118 2.078432
1.063153 0.267865 2.076471
1.054165 0.265082 2.054902
1.050173 0.263565 2.043137
1.042118 0.261035 2.023530
1.044141 0.261035 2.023530
1.049206 0.261794 2.029412
1.057329 0.263312 2.041177
1.072600 0.266600 2.066667
1.072627 0.266094 2.062745
1.074690 0.266094 2.062745
1.079823 0.266853 2.068627
1.081892 0.266853 2.068627
1.021286 0.251424 1.949020
1.058235 0.260024 2.015686
-0.017841 0.257706 1.982353
-0.017804 0.289314 2.225490
-0.015565 0.289059 2.223530
-0.013247 0.287020 2.207843
-0.010931 0.284216 2.186275
-0.008682 0.282177 2.170588
-0.006394 0.277078 2.131373
-0.004212 0.273765 2.105882
-0.002092 0.271980 2.092157
0.000000 0.272745 2.098039
0.002120 0.275549 2.119608
0.004282 0.278353 2.141176
0.006659 0.288549 2.219608
0.009122 0.296451 2.280392
0.011755 0.305627 2.350981
0.014400 0.312000 2.400000
0.017555 0.326020 2.507843
0.020659 0.335706 2.582353
0.022588 0.326275 2.509804
0.024686 0.320922 2.468627
0.026939 0.318373 2.449020
0.028471 0.308431 2.372549
0.032194 0.321941 2.476471
0.034863 0.323726 2.490196
0.037471 0.324745 2.498039
0.041161 0.334431 2.572549
0.043967 0.336216 2.586275
0.048706 0.351765 2.705883
0.051263 0.350745 2.698040
0.053922 0.350490 2.696078
0.056165 0.347686 2.674510
0.059745 0.353039 2.715686
0.064896 0.366804 2.821569
0.069082 0.374196 2.878431
0.069853 0.363235 2.794118
0.072392 0.361961 2.784314
0.076553 0.368588 2.835294
0.079278 0.368078 2.831373
0.081826 0.366804 2.821569
0.083647 0.362471 2.788235
0.083822 0.351510 2.703922
0.083765 0.340294 2.617647
0.084312 0.332137 2.554902
0.086133 0.329333 2.533333
0.086608 0.321686 2.474510
0.086047 0.310725 2.390196
0.086406 0.303588 2.335294
0.085463 0.292373 2.249020
0.087253 0.290843 2.237255
0.090431 0.293902 2.260784
0.088994 0.282177 2.170588
0.089600 0.277333 2.133333
0.094431 0.285490 2.196079
0.108447 0.320412 2.464706
0.115853 0.334686 2.574510
0.114008 0.322196 2.478431
0.113353 0.313529 2.411765
0.111529 0.302059 2.323529
0.110202 0.292373 2.249020
0.108431 0.281922 2.168628
0.107500 0.274020 2.107843
0.107467 0.268667 2.066667
0.107455 0.263569 2.027451
0.108000 0.260000 2.000000
0.109569 0.258980 1.992157
0.110792 0.257196 1.978431
0.113553 0.258980 1.992157
0.115204 0.258216 1.986275
0.117306 0.258471 1.988235
0.120941 0.262039 2.015686
0.124153 0.264588 2.035294
0.126431 0.265098 2.039216
0.127235 0.262549 2.019608
0.128753 0.261529 2.011765
0.134333 0.268667 2.066667
0.132259 0.260510 2.003922
0.131241 0.254647 1.958824
0.131600 0.251588 1.935294
0.140300 0.264333 2.033334
0.144667 0.268667 2.066667
0.147986 0.270961 2.084314
0.142588 0.257451 1.980392
0.143137 0.254902 1.960784
0.147565 0.259235 1.994118
0.150735 0.261275 2.009804
0.151702 0.259490 1.996078
0.154000 0.260000 2.000000
0.154318 0.257196 1.978431
0.157071 0.258471 1.988235
0.158431 0.257451 1.980392
0.159776 0.256431 1.972549
0.160624 0.254647 1.958823
0.161443 0.252863 1.945098
0.163882 0.253627 1.950980
0.166333 0.254392 1.956863
0.168796 0.255157 1.962745
0.171441 0.256176 1.970588
0.174620 0.257961 1.984314
0.179571 0.262294 2.017647
0.185647 0.268157 2.062745
0.187353 0.267647 2.058824
0.188871 0.266882 2.052941
0.180712 0.252608 1.943137
0.178969 0.247510 1.903922
0.205647 0.281412 2.164706
0.212518 0.287784 2.213726
0.219486 0.294157 2.262745
0.228090 0.302569 2.327451
0.217606 0.285745 2.198039
0.225490 0.293137 2.254902
0.218437 0.281157 2.162745
0.207600 0.264588 2.035294
0.214280 0.270451 2.080392
0.233286 0.291608 2.243137
0.247471 0.306392 2.356863
0.219898 0.269686 2.074510
0.200363 0.243431 1.872549
0.219176 0.263824 2.029412
0.211802 0.252608 1.943137
0.229922 0.271725 2.090196
0.236800 0.277333 2.133333
0.234541 0.272235 2.094118
0.227773 0.262039 2.015686
0.230459 0.262804 2.021569
0.234059 0.264588 2.035294
0.233820 0.262039 2.015686
0.239965 0.266627 2.050981
0.236694 0.260765 2.005883
0.227033 0.248020 1.907843
0.226588 0.245471 1.888235
0.238204 0.255922 1.968628
0.235867 0.251333 1.933333
0.247929 0.262039 2.015686
0.248000 0.260000 2.000000
0.260784 0.271216 2.086275
0.264106 0.272490 2.096079
0.271182 0.277588 2.135294
0.262024 0.266118 2.047059
0.259771 0.261784 2.013726
0.265863 0.265863 2.045098
0.277669 0.275549 2.119608
0.272541 0.268412 2.064706
0.298598 0.291863 2.245098
0.305835 0.296706 2.282353
0.319235 0.307412 2.364706
0.331733 0.317098 2.439216
0.318861 0.302569 2.327451
0.330929 0.311745 2.398039
0.319155 0.298490 2.296078
0.314863 0.292373 2.249020
0.324300 0.299000 2.300000
0.337459 0.308941 2.376471
0.334508 0.304098 2.339216
0.310871 0.280647 2.158823
0.347147 0.311235 2.394118
0.347251 0.309196 2.378431
0.336082 0.297216 2.286275
0.324729 0.285235 2.194118
0.321665 0.280647 2.158823
0.317647 0.275294 2.117647
0.313843 0.270196 2.078432
0.313537 0.268157 2.062745
0.314100 0.266882 2.052941
0.317663 0.268157 2.062745
0.316686 0.265608 2.043137
0.315365 0.262804 2.021569
0.316155 0.261784 2.013726
0.316929 0.260765 2.005883
0.321429 0.262804 2.021569
0.324078 0.263314 2.025490
0.328314 0.265098 2.039216
0.336388 0.269941 2.076471
0.346775 0.276569 2.127451
0.356620 0.282686 2.174510
0.362029 0.285235 2.194118
0.371384 0.290843 2.237255
0.367073 0.285745 2.198039
0.317224 0.245471 1.888235
0.316129 0.243176 1.870588
0.334333 0.255667 1.966667
0.367482 0.279373 2.149020
0.351082 0.265353 2.041177
0.344304 0.258725 1.990196
0.336059 0.251078 1.931373
0.336618 0.250059 1.923530
0.356141 0.263059 2.023530
0.345324 0.253627 1.950980
0.366820 0.267902 2.060784
0.388886 0.282431 2.172549
0.384000 0.277333 2.133333
0.405653 0.291353 2.241177
0.402541 0.287529 2.211765
0.368153 0.261529 2.011765
0.374494 0.264588 2.035294
0.403010 0.283196 2.178432
0.375282 0.262294 2.017647
0.339167 0.235784 1.813725
0.372682 0.257706 1.982353
0.365400 0.251333 1.933334
0.361745 0.247510 1.903922
0.428814 0.291863 2.245098
0.420894 0.284980 2.192157
0.404922 0.272745 2.098039
0.411584 0.275804 2.121569
0.414088 0.276059 2.123529
0.431969 0.286510 2.203922
0.429151 0.283196 2.178432
0.430553 0.282686 2.174510
0.419851 0.274275 2.109804
0.429020 0.278863 2.145098
0.444959 0.287784 2.213726
0.452718 0.291353 2.241177
0.478443 0.306392 2.356863
0.479200 0.305373 2.349020
0.477128 0.302569 2.327451
0.477839 0.301549 2.319608
0.482188 0.302824 2.329412
0.481255 0.300784 2.313726
0.473324 0.294412 2.264706
0.461176 0.285490 2.196079
0.462545 0.284980 2.192157
0.456424 0.279882 2.152941
0.450224 0.274784 2.113726
0.443106 0.269176 2.070588
0.456980 0.276314 2.125490
0.452329 0.272235 2.094118
0.450169 0.269686 2.074510
0.446686 0.266373 2.049020
0.444871 0.264078 2.031373
0.445608 0.263314 2.025490
0.447633 0.263314 2.025490
0.453576 0.265608 2.043137
0.455620 0.265608 2.043137
0.454588 0.263824 2.029412
0.457941 0.264588 2.035294
0.458204 0.263569 2.027451
0.460231 0.263569 2.027451
0.463153 0.264078 2.031373
0.463837 0.263314 2.025490
0.471275 0.266373 2.049020
0.473324 0.266373 2.049020
0.478557 0.268157 2.062745
0.483818 0.269941 2.076471
0.489106 0.271725 2.090196
0.488892 0.270451 2.080392
0.490510 0.270196 2.078432
0.493053 0.270451 2.080392
0.497000 0.271471 2.088235
0.500963 0.272490 2.096079
0.504471 0.273255 2.101961
0.515551 0.278098 2.139216
0.526231 0.282686 2.174510
0.532694 0.284980 2.192157
0.534886 0.284980 2.192157
0.537078 0.284980 2.192157
0.540718 0.285745 2.198039
0.544369 0.286510 2.203922
0.547545 0.287020 2.207843
0.552682 0.288549 2.219608
0.554412 0.288294 2.217647
0.553676 0.286765 2.205882
0.546494 0.281922 2.168628
0.539237 0.277078 2.131373
0.533400 0.273000 2.100000
0.529000 0.269686 2.074510
0.526557 0.267392 2.056863
0.522567 0.264333 2.033334
0.523082 0.263569 2.027451
0.528157 0.265098 2.039216
0.536824 0.268412 2.064706
0.554753 0.276314 2.125490
0.571263 0.283451 2.180392
0.568802 0.281157 2.162745
0.568376 0.279882 2.152941
0.577284 0.283196 2.178432
0.582592 0.284726 2.190196
0.586876 0.285745 2.198039
0.592227 0.287275 2.209804
0.588108 0.284216 2.186275
0.595059 0.286510 2.203922
0.597263 0.286510 2.203922
0.594667 0.284216 2.186275
0.590429 0.281157 2.162745
0.589369 0.279627 2.150980
0.589902 0.278863 2.145098
0.592047 0.278863 2.145098
0.592020 0.277843 2.137255
0.582165 0.272235 2.094118
0.587541 0.273765 2.105882
0.589098 0.273510 2.103922
0.593957 0.274784 2.113726
0.588882 0.271471 2.088235
0.589306 0.270706 2.082353
0.587490 0.268922 2.068627
0.587882 0.268157 2.062745
0.588263 0.267392 2.056863
0.586943 0.265863 2.045098
0.592376 0.267392 2.056863
0.596133 0.268157 2.062745
0.596490 0.267392 2.056863
0.596835 0.266627 2.050981
0.598886 0.266627 2.050981
0.600937 0.266627 2.050981
0.599529 0.265098 2.039216
0.606775 0.267392 2.056863
0.607090 0.266627 2.050981
0.614965 0.269176 2.070588
0.628137 0.274020 2.107843
0.630831 0.274275 2.109804
0.638824 0.276824 2.129412
0.618526 0.267137 2.054902
0.623541 0.268412 2.064706
0.638676 0.274020 2.107843
0.646745 0.276569 2.127451
0.669206 0.285235 2.194118
0.682800 0.290078 2.231373
0.696469 0.294922 2.268628
0.702965 0.296706 2.282353
0.701612 0.295176 2.270588
0.713608 0.299255 2.301961
0.719569 0.300784 2.313726
0.699859 0.291608 2.243137
0.670188 0.278353 2.141177
0.648318 0.268412 2.064706
0.644206 0.265863 2.045098
0.623326 0.256431 1.972549
0.626541 0.256941 1.976471
0.604824 0.247255 1.901961
0.633622 0.258216 1.986275
0.634353 0.257706 1.982353
0.587871 0.238078 1.831373
0.611169 0.246745 1.898039
0.624467 0.251333 1.933333
0.642282 0.257706 1.982353
0.704167 0.281667 2.166667
0.726149 0.289569 2.227451
0.675800 0.268667 2.066667
0.668220 0.264843 2.037255
0.728316 0.287784 2.213726
0.678118 0.267137 2.054902
0.630198 0.247510 1.903922
0.665302 0.260510 2.003922
0.633353 0.247255 1.901961
0.586792 0.228392 1.756863
0.704157 0.273255 2.101961
0.719435 0.278353 2.141177
0.672018 0.259235 1.994118
0.683953 0.263059 2.023530
0.713894 0.273765 2.105882
0.710000 0.271471 2.088235
0.692029 0.263824 2.029412
0.713506 0.271216 2.086275
0.729043 0.276314 2.125490
0.733867 0.277333 2.133333
0.694735 0.261784 2.013726
0.726600 0.273000 2.100000
0.728700 0.273000 2.100000
0.749224 0.279882 2.152941
0.763010 0.284216 2.186275
0.759020 0.281922 2.168628
0.748112 0.277078 2.131373
0.731608 0.270196 2.078432
0.724688 0.266882 2.052941
0.719800 0.264333 2.033334
