ply
format ascii 1.0
element vertex 1773
property float x
property float y
property float z
end_header
1.203304 1.232737 1.731373
1.203724 1.240412 1.747059
1.203326 1.240055 1.749020
1.203326 1.247051 1.749020
1.204988 1.179459 1.701961
1.204029 1.190367 1.707843
1.204673 1.194449 1.703922
1.204565 1.211294 1.682353
1.204841 1.219965 1.680392
1.204673 1.230231 1.703922
1.204071 1.231553 1.717647
1.204412 1.240441 1.715686
1.204988 1.242431 1.701961
1.205686 1.170275 1.686275
1.205647 1.173832 1.674510
1.205110 1.181447 1.690196
1.205382 1.185265 1.676471
1.205608 1.185231 1.698039
1.205382 1.200353 1.676471
1.205647 1.208996 1.674510
1.205098 1.208541 1.721569
1.205400 1.217506 1.729412
1.205035 1.234469 1.731373
1.205075 1.240055 1.749020
1.205098 1.241251 1.721569
1.205277 1.241800 1.739216
1.205075 1.250549 1.749020
1.205208 1.250886 1.756863
1.206800 1.183137 1.690196
1.206165 1.184447 1.670588
1.206165 1.186118 1.670588
1.206377 1.192745 1.703922
1.206128 1.199265 1.715686
1.206800 1.222012 1.690196
1.206029 1.223382 1.735294
1.206767 1.227543 1.731373
1.206251 1.230655 1.743137
1.206377 1.231935 1.703922
1.206128 1.242157 1.715686
1.206965 1.247373 1.756863
1.206251 1.249829 1.743137
1.206965 1.249130 1.756863
1.206824 1.252298 1.749020
1.206965 1.252643 1.756863
1.207322 1.175506 1.674510
1.207059 1.185265 1.676471
1.207059 1.186941 1.676471
1.207835 1.189459 1.670588
1.207059 1.198677 1.676471
1.207059 1.200353 1.676471
1.207506 1.210941 1.717647
1.207130 1.215777 1.729412
1.207373 1.225922 1.686275
1.207506 1.233271 1.717647
1.207843 1.243873 1.715686
1.207445 1.245018 1.707843
1.207130 1.245177 1.729412
1.207765 1.247676 1.735294
1.207373 1.253000 1.754902
1.208202 1.176275 1.680392
1.208996 1.177181 1.674510
1.208490 1.184827 1.690196
1.208735 1.186941 1.676471
1.208735 1.188618 1.676471
1.208080 1.191041 1.703922
1.208735 1.197000 1.676471
1.208735 1.198677 1.676471
1.208541 1.205098 1.721569
1.208859 1.214047 1.729412
1.208490 1.220322 1.690196
1.208573 1.236557 1.749020
1.208498 1.237931 1.731373
1.208573 1.252298 1.749020
1.208824 1.254706 1.764706
1.209506 1.187788 1.670588
1.209559 1.194118 1.715686
1.209224 1.209224 1.717647
1.209737 1.228912 1.743137
1.209004 1.232777 1.698039
1.209892 1.233582 1.692157
1.209224 1.234988 1.717647
1.209784 1.235343 1.703922
1.209737 1.251573 1.743137
1.210180 1.186518 1.690196
1.210941 1.207506 1.717647
1.210588 1.212318 1.729412
1.210180 1.218631 1.690196
1.210745 1.220863 1.686275
1.210229 1.224080 1.731373
1.210465 1.227347 1.688235
1.210941 1.236706 1.717647
1.210229 1.239663 1.731373
1.210867 1.240400 1.737255
1.210479 1.242102 1.756863
1.210588 1.248635 1.729412
1.210479 1.257914 1.756863
1.211488 1.187633 1.703922
1.211871 1.188208 1.690196
1.211871 1.189898 1.690196
1.211563 1.211563 1.680392
1.211871 1.215251 1.690196
1.211871 1.216941 1.690196
1.211480 1.227169 1.743137
1.211488 1.237047 1.703922
1.211929 1.239318 1.711765
1.211098 1.240765 1.745098
1.211098 1.242510 1.745098
1.211275 1.249020 1.715686
1.211006 1.249786 1.762745
1.211829 1.254041 1.758824
1.211006 1.255075 1.762745
1.212696 1.175382 1.696079
1.212988 1.177412 1.694118
1.212153 1.178388 1.688235
1.212990 1.188971 1.715686
1.212088 1.190294 1.676471
1.212088 1.191971 1.676471
1.212088 1.195324 1.676471
1.212659 1.204071 1.717647
1.212318 1.210588 1.729412
1.212431 1.219176 1.686275
1.212604 1.219553 1.737255
1.212153 1.223971 1.688235
1.212604 1.229977 1.737255
1.212988 1.233318 1.694118
1.212843 1.239020 1.745098
1.212843 1.244255 1.745098
1.212769 1.248024 1.762745
1.212251 1.251577 1.709804
1.212971 1.251147 1.735294
1.212990 1.252451 1.715686
1.212071 1.255796 1.749020
1.212235 1.259671 1.756863
1.212769 1.260363 1.762745
1.212853 1.262430 1.770588
1.213841 1.180077 1.688235
1.213641 1.184541 1.711765
1.213192 1.187633 1.703922
1.213561 1.189898 1.690196
1.213561 1.191588 1.690196
1.213765 1.193647 1.676471
1.213641 1.194812 1.711765
1.213243 1.209882 1.680392
1.213020 1.211294 1.725490
1.213561 1.213561 1.690196
1.213561 1.215251 1.690196
1.213841 1.222282 1.688235
1.213224 1.227169 1.743137
1.213020 1.244078 1.725490
1.213706 1.251580 1.721569
1.213992 1.259671 1.756863
1.214682 1.179106 1.694118
1.214969 1.182818 1.692157
1.214706 1.187255 1.715686
1.214659 1.199518 1.682353
1.214043 1.200286 1.719608
1.214659 1.201200 1.682353
1.214377 1.202353 1.717647
1.214924 1.208202 1.680392
1.214047 1.208859 1.729412
1.214967 1.225426 1.743137
1.214967 1.232398 1.743137
1.214896 1.235343 1.703922
1.214588 1.237275 1.745098
1.214377 1.241859 1.717647
1.214047 1.252094 1.729412
1.214624 1.253577 1.770588
1.214967 1.255059 1.743137
1.214624 1.258888 1.770588
1.214624 1.262430 1.770588
1.214624 1.264200 1.770588
1.215694 1.182204 1.674510
1.215251 1.191588 1.690196
1.215251 1.193278 1.690196
1.215353 1.193100 1.711765
1.215428 1.196490 1.721569
1.215777 1.207130 1.729412
1.215251 1.211871 1.690196
1.215251 1.213561 1.690196
1.215424 1.217155 1.731373
1.215529 1.220594 1.688235
1.215424 1.220618 1.731373
1.215749 1.238588 1.756863
1.215424 1.243126 1.731373
1.215424 1.246588 1.731373
1.215569 1.257545 1.749020
1.215047 1.262800 1.768627
1.215883 1.267059 1.764706
1.216600 1.191041 1.703922
1.216941 1.193278 1.690196
1.216812 1.194406 1.723530
1.216812 1.196130 1.723530
1.216094 1.200635 1.717647
1.216075 1.204284 1.684314
1.216941 1.211871 1.690196
1.216471 1.211294 1.725490
1.216600 1.233639 1.703922
1.216294 1.244498 1.762745
1.216333 1.247745 1.745098
1.216541 1.249847 1.752941
1.216394 1.251806 1.770588
1.216441 1.254618 1.735294
1.216882 1.261294 1.776471
1.216882 1.264847 1.776471
1.216882 1.268400 1.776471
1.217759 1.202600 1.684314
1.217506 1.205400 1.729412
1.217155 1.218886 1.731373
1.217155 1.244857 1.731373
1.217812 1.245294 1.717647
1.217506 1.245616 1.756863
1.217812 1.255600 1.717647
1.217506 1.255553 1.729412
1.217506 1.263184 1.756863
1.218304 1.192745 1.703922
1.218631 1.194969 1.690196
1.218631 1.210180 1.690196
1.218886 1.217155 1.731373
1.218453 1.221939 1.743137
1.218824 1.227530 1.741177
1.218304 1.231935 1.703922
1.218078 1.233784 1.745098
1.218057 1.244498 1.762745
1.218886 1.246588 1.731373
1.218078 1.249490 1.745098
1.218682 1.250200 1.750980
1.218165 1.251806 1.770588
1.218865 1.252282 1.758824
1.218871 1.258467 1.721569
1.218453 1.258545 1.743137
1.218659 1.259518 1.776471
1.218659 1.261294 1.776471
1.218659 1.270176 1.776471
1.219176 1.187137 1.686275
1.219090 1.193443 1.709804
1.219965 1.204841 1.680392
1.219553 1.212604 1.737255
1.219530 1.247012 1.717647
1.219935 1.248265 1.770588
1.219912 1.258088 1.735294
1.219235 1.259012 1.729412
1.219820 1.265651 1.762745
1.219935 1.269512 1.770588
1.220008 1.185929 1.703922
1.220594 1.186829 1.688235
1.220863 1.188824 1.686275
1.220592 1.189604 1.721569
1.220008 1.194449 1.703922
1.220322 1.196659 1.690196
1.220594 1.215529 1.688235
1.220433 1.229188 1.750980
1.220008 1.230231 1.703922
1.220433 1.239694 1.750980
1.220618 1.248320 1.731373
1.220624 1.248765 1.758824
1.220435 1.257741 1.776471
1.220816 1.261043 1.749020
1.220435 1.270176 1.776471
1.220435 1.271953 1.776471
1.221247 1.195482 1.717647
1.221712 1.196153 1.703922
1.221647 1.199216 1.725490
1.221712 1.228528 1.703922
1.221569 1.232039 1.745098
1.221020 1.235075 1.756863
1.221582 1.242735 1.762745
1.221108 1.246725 1.707843
1.221247 1.248730 1.717647
1.221569 1.251235 1.745098
1.221939 1.262031 1.743137
1.221020 1.264941 1.756863
1.221706 1.271282 1.770588
1.222200 1.184541 1.711765
1.222816 1.185243 1.707843
1.222008 1.186267 1.701961
1.222965 1.195482 1.717647
1.222694 1.196753 1.729412
1.222012 1.198349 1.690196
1.222282 1.213841 1.688235
1.222008 1.235624 1.701961
1.222777 1.235075 1.756863
1.222816 1.245018 1.707843
1.222382 1.247006 1.758824
1.222965 1.248730 1.717647
1.222200 1.251300 1.711765
1.222941 1.254388 1.747059
1.222212 1.254188 1.776471
1.222255 1.257941 1.784314
1.222255 1.259726 1.784314
1.222694 1.264200 1.729412
1.222777 1.264941 1.756863
1.222212 1.271953 1.776471
1.222212 1.273729 1.776471
1.222255 1.277569 1.784314
1.222255 1.282922 1.784314
1.223710 1.187969 1.701961
1.223971 1.190206 1.688235
1.223702 1.200039 1.690196
1.223702 1.205110 1.690196
1.223382 1.206029 1.735294
1.223314 1.230294 1.745098
1.223710 1.233922 1.701961
1.223345 1.240973 1.762745
1.223477 1.246494 1.770588
1.223314 1.252980 1.745098
1.223988 1.254188 1.776471
1.223345 1.267414 1.762745
1.223477 1.271282 1.770588
1.223477 1.273053 1.770588
1.224569 1.190647 1.696079
1.224524 1.192075 1.707843
1.224765 1.205655 1.737255
1.224080 1.210229 1.731373
1.224408 1.220929 1.739216
1.224314 1.224314 1.749020
1.224141 1.245247 1.758824
1.224682 1.247012 1.717647
1.224080 1.253514 1.731373
1.224039 1.254373 1.784314
1.224141 1.257559 1.758824
1.224039 1.257941 1.784314
1.224412 1.259902 1.774510
1.224039 1.259726 1.784314
1.224039 1.261510 1.784314
1.224314 1.264541 1.749020
1.224424 1.265930 1.729412
1.224039 1.282922 1.784314
1.225000 1.185539 1.715686
1.225922 1.192196 1.686275
1.225392 1.201729 1.690196
1.225392 1.203420 1.690196
1.225812 1.208498 1.731373
1.225059 1.228549 1.745098
1.225306 1.237577 1.752941
1.225339 1.248459 1.778432
1.225765 1.252412 1.776471
1.225059 1.254726 1.745098
1.225824 1.254373 1.784314
1.225812 1.255245 1.731373
1.225812 1.260439 1.731373
1.225118 1.265029 1.735294
1.225426 1.265518 1.743137
1.225118 1.266765 1.735294
1.225824 1.281137 1.784314
1.225824 1.282922 1.784314
1.225824 1.284706 1.784314
1.226716 1.187255 1.715686
1.226541 1.192659 1.694118
1.226153 1.193294 1.729412
1.226400 1.198918 1.717647
1.226824 1.201265 1.703922
1.226147 1.219190 1.739216
1.226063 1.222565 1.749020
1.226804 1.226804 1.745098
1.226063 1.231310 1.749020
1.226290 1.231561 1.756863
1.226400 1.245294 1.717647
1.226502 1.254298 1.737255
1.226804 1.256471 1.745098
1.226063 1.257545 1.749020
1.226471 1.260000 1.764706
1.226284 1.260298 1.790196
1.226284 1.265669 1.790196
1.226153 1.267659 1.729412
1.226284 1.267459 1.790196
1.226284 1.269249 1.790196
1.226284 1.279990 1.790196
1.226284 1.283571 1.790196
1.226284 1.285361 1.790196
1.226284 1.288941 1.790196
1.227114 1.193075 1.701961
1.227543 1.206767 1.731373
1.227437 1.222184 1.750980
1.227628 1.227628 1.792157
1.227018 1.244724 1.770588
1.227018 1.246494 1.770588
1.227118 1.248459 1.778432
1.227541 1.252412 1.776471
1.227543 1.256977 1.731373
1.227608 1.256157 1.784314
1.227530 1.258871 1.741177
1.227169 1.258545 1.743137
1.227267 1.260722 1.760784
1.227812 1.268039 1.749020
1.227169 1.269004 1.743137
1.227018 1.274824 1.770588
1.227608 1.281137 1.784314
1.227608 1.284706 1.784314
1.227608 1.286490 1.784314
1.227628 1.317235 1.792157
1.228431 1.188971 1.715686
1.228588 1.199088 1.735294
1.228118 1.200635 1.717647
1.228877 1.201300 1.723530
1.228235 1.216376 1.694118
1.228528 1.221712 1.703922
1.228235 1.238824 1.764706
1.228741 1.242451 1.713726
1.228118 1.243577 1.717647
1.228788 1.244724 1.770588
1.228431 1.252451 1.715686
1.228549 1.258216 1.745098
1.228377 1.258510 1.772549
1.228377 1.260282 1.772549
1.228075 1.260298 1.790196
1.228377 1.263828 1.772549
1.228471 1.269420 1.780392
1.228633 1.270939 1.762745
1.228075 1.281780 1.790196
1.228075 1.283571 1.790196
1.228075 1.285361 1.790196
1.228075 1.288941 1.790196
1.229294 1.193882 1.686275
1.229035 1.193582 1.688235
1.229647 1.195490 1.707843
1.229835 1.202353 1.717647
1.229294 1.205686 1.686275
1.229275 1.205035 1.731373
1.229657 1.219480 1.696079
1.229380 1.219192 1.698039
1.229561 1.219067 1.749020
1.229420 1.225835 1.792157
1.229420 1.234796 1.792157
1.229420 1.236588 1.792157
1.229420 1.240173 1.792157
1.229835 1.241859 1.717647
1.229318 1.250635 1.776471
1.229392 1.256157 1.784314
1.229275 1.258708 1.731373
1.229200 1.260188 1.721569
1.229865 1.260298 1.790196
1.229418 1.261077 1.758824
1.229865 1.262088 1.790196
1.229865 1.263879 1.790196
1.229804 1.271969 1.756863
1.229318 1.277282 1.776471
1.229865 1.283571 1.790196
1.229392 1.284706 1.784314
1.229392 1.286490 1.784314
1.229420 1.297522 1.792157
1.230147 1.192402 1.715686
1.230231 1.204673 1.703922
1.230655 1.206251 1.743137
1.230231 1.220008 1.703922
1.230000 1.237059 1.764706
1.230559 1.242953 1.770588
1.230147 1.249020 1.715686
1.230149 1.256737 1.772549
1.230922 1.258467 1.721569
1.230294 1.259961 1.745098
1.230149 1.265600 1.772549
1.230396 1.272702 1.762745
1.230655 1.274233 1.743137
1.230559 1.276594 1.770588
1.231624 1.196047 1.694118
1.231006 1.203304 1.731373
1.231935 1.206377 1.703922
1.231624 1.214682 1.694118
1.231310 1.215569 1.749020
1.231310 1.217318 1.749020
1.231935 1.218304 1.703922
1.231677 1.222941 1.747059
1.231310 1.226063 1.749020
1.231657 1.229859 1.798039
1.231212 1.231212 1.792157
1.231355 1.233063 1.707843
1.231657 1.233455 1.798039
1.231657 1.235253 1.798039
1.231657 1.237051 1.798039
1.231657 1.238849 1.798039
1.231553 1.240141 1.717647
1.231657 1.240647 1.798039
1.231657 1.242445 1.798039
1.231212 1.243757 1.792157
1.231657 1.244243 1.798039
1.231657 1.246041 1.798039
1.231863 1.247304 1.715686
1.231657 1.249637 1.798039
1.231657 1.251435 1.798039
1.231657 1.253233 1.798039
1.231177 1.254373 1.784314
1.231657 1.255032 1.798039
1.231177 1.256157 1.784314
1.231655 1.258508 1.790196
1.231212 1.258094 1.792157
1.231657 1.258628 1.798039
1.231006 1.260439 1.731373
1.231657 1.260426 1.798039
1.231655 1.262088 1.790196
1.231657 1.264022 1.798039
1.231310 1.271537 1.749020
1.231177 1.282922 1.784314
1.231177 1.284706 1.784314
1.231177 1.286490 1.784314
1.231655 1.287151 1.790196
1.231657 1.296386 1.798039
1.231657 1.298184 1.798039
1.231657 1.301781 1.798039
1.231657 1.303579 1.798039
1.231657 1.307175 1.798039
1.231657 1.310771 1.798039
1.231657 1.312569 1.798039
1.231657 1.316165 1.798039
1.231657 1.317963 1.798039
1.231657 1.319761 1.798039
1.231657 1.323357 1.798039
1.232737 1.203304 1.731373
1.232412 1.207088 1.688235
1.232769 1.207122 1.709804
1.232690 1.215180 1.750980
1.232039 1.221569 1.745098
1.232159 1.233922 1.762745
1.232330 1.241182 1.770588
1.232000 1.252706 1.725490
1.232961 1.252588 1.784314
1.232961 1.254373 1.784314
1.232737 1.260439 1.731373
1.232039 1.261706 1.745098
1.232398 1.265518 1.743137
1.232031 1.265859 1.780392
1.232159 1.274465 1.762745
1.232398 1.275977 1.743137
1.232330 1.276594 1.770588
1.232330 1.278365 1.770588
1.232871 1.279059 1.776471
1.232453 1.284028 1.778432
1.232961 1.284706 1.784314
1.233726 1.199216 1.725490
1.233104 1.205277 1.739216
1.233271 1.207506 1.717647
1.233639 1.208080 1.703922
1.233318 1.212988 1.694118
1.233639 1.216600 1.703922
1.233784 1.218078 1.745098
1.233318 1.224533 1.756863
1.233063 1.231355 1.707843
1.233922 1.232159 1.762745
1.233004 1.233004 1.792157
1.233455 1.235253 1.798039
1.233271 1.236706 1.717647
1.233455 1.237051 1.798039
1.233455 1.242445 1.798039
1.233455 1.249637 1.798039
1.233455 1.251435 1.798039
1.233455 1.253233 1.798039
1.233455 1.255032 1.798039
1.233726 1.256157 1.725490
1.233455 1.256830 1.798039
1.233445 1.258508 1.790196
1.233455 1.258628 1.798039
1.233059 1.275035 1.749020
1.233318 1.275482 1.756863
1.233445 1.287151 1.790196
1.233455 1.296386 1.798039
1.233455 1.298184 1.798039
1.233455 1.299983 1.798039
1.233004 1.301106 1.792157
1.233455 1.303579 1.798039
1.233455 1.305377 1.798039
1.233455 1.307175 1.798039
1.233455 1.310771 1.798039
1.233455 1.312569 1.798039
1.233455 1.314367 1.798039
1.233455 1.316165 1.798039
1.233455 1.319761 1.798039
1.233455 1.321559 1.798039
1.233455 1.323357 1.798039
1.234479 1.198573 1.709804
1.234141 1.202765 1.743137
1.234469 1.205035 1.731373
1.234988 1.209224 1.717647
1.234441 1.213429 1.750980
1.234475 1.215796 1.698039
1.234988 1.234988 1.717647
1.234745 1.250804 1.784314
1.234745 1.254373 1.784314
1.234365 1.255024 1.721569
1.234469 1.258708 1.731373
1.234800 1.267659 1.729412
1.234141 1.277720 1.743137
1.234441 1.279967 1.750980
1.234100 1.280135 1.770588
1.234745 1.286490 1.784314
1.234745 1.288275 1.784314
1.234796 1.301106 1.792157
1.235624 1.199882 1.701961
1.235294 1.199265 1.715686
1.235343 1.209784 1.703922
1.235343 1.214896 1.703922
1.235529 1.216333 1.745098
1.235075 1.221020 1.756863
1.235894 1.227335 1.711765
1.235253 1.229859 1.798039
1.235253 1.231657 1.798039
1.235253 1.233455 1.798039
1.235253 1.237051 1.798039
1.235253 1.238849 1.798039
1.235253 1.240647 1.798039
1.235253 1.242445 1.798039
1.235253 1.244243 1.798039
1.235253 1.249637 1.798039
1.235253 1.251435 1.798039
1.235686 1.251922 1.803922
1.235253 1.253233 1.798039
1.235253 1.256830 1.798039
1.235253 1.258628 1.798039
1.235253 1.260426 1.798039
1.235686 1.260941 1.803922
1.235529 1.266941 1.745098
1.235686 1.266353 1.803922
1.235671 1.275012 1.788235
1.235684 1.277990 1.762745
1.235075 1.278996 1.756863
1.235871 1.280135 1.770588
1.235253 1.296386 1.798039
1.235253 1.299983 1.798039
1.235253 1.301781 1.798039
1.235253 1.305377 1.798039
1.235253 1.307175 1.798039
1.235253 1.308973 1.798039
1.235686 1.309647 1.803922
1.235253 1.310771 1.798039
1.235686 1.313255 1.803922
1.235253 1.314367 1.798039
1.235253 1.316165 1.798039
1.235686 1.318667 1.803922
1.235253 1.319761 1.798039
1.235253 1.321559 1.798039
1.235253 1.323357 1.798039
1.236530 1.195024 1.729412
1.236706 1.199435 1.694118
1.236557 1.208573 1.749020
1.236588 1.227628 1.792157
1.236588 1.229420 1.792157
1.236706 1.233271 1.717647
1.236588 1.243757 1.792157
1.236530 1.250804 1.784314
1.236588 1.256302 1.792157
1.236530 1.265930 1.729412
1.236102 1.271828 1.786275
1.236102 1.273614 1.786275
1.236530 1.286490 1.784314
1.236588 1.299314 1.792157
1.236588 1.301106 1.792157
1.236588 1.315443 1.792157
1.237931 1.208498 1.731373
1.237047 1.211488 1.703922
1.237047 1.213192 1.703922
1.237275 1.214588 1.745098
1.237051 1.229859 1.798039
1.237051 1.231657 1.798039
1.237051 1.233455 1.798039
1.237051 1.235253 1.798039
1.237490 1.235686 1.803922
1.237641 1.237641 1.770588
1.237490 1.237490 1.803922
1.237051 1.238849 1.798039
1.237010 1.240441 1.715686
1.237051 1.242445 1.798039
1.237051 1.244243 1.798039
1.237051 1.246041 1.798039
1.237051 1.249637 1.798039
1.237490 1.250118 1.803922
1.237051 1.251435 1.798039
1.237490 1.251922 1.803922
1.237051 1.253233 1.798039
1.237931 1.255245 1.731373
1.237051 1.258628 1.798039
1.237051 1.260426 1.798039
1.237051 1.262224 1.798039
1.237490 1.264549 1.803922
1.237490 1.266353 1.803922
1.237275 1.268686 1.745098
1.237577 1.269130 1.752941
1.237628 1.281206 1.743137
1.237059 1.282941 1.764706
1.237943 1.283469 1.750980
1.237026 1.290731 1.790196
1.237026 1.292522 1.790196
1.237051 1.299983 1.798039
1.237051 1.303579 1.798039
1.237051 1.307175 1.798039
1.237051 1.308973 1.798039
1.237490 1.313255 1.803922
1.237051 1.314367 1.798039
1.237051 1.317963 1.798039
1.237051 1.319761 1.798039
1.237051 1.321559 1.798039
1.237490 1.322275 1.803922
1.237051 1.323357 1.798039
1.238259 1.196753 1.729412
1.239000 1.197353 1.735294
1.238186 1.202322 1.707843
1.238322 1.207016 1.739216
1.238588 1.215749 1.756863
1.238380 1.229420 1.792157
1.238849 1.229859 1.798039
1.238849 1.233455 1.798039
1.238849 1.235253 1.798039
1.238849 1.237051 1.798039
1.238849 1.238849 1.798039
1.238849 1.242445 1.798039
1.238849 1.244243 1.798039
1.238849 1.246041 1.798039
1.238849 1.247839 1.798039
1.238314 1.249020 1.784314
1.238849 1.249637 1.798039
1.238849 1.251435 1.798039
1.238816 1.256718 1.790196
1.238849 1.258628 1.798039
1.238849 1.260426 1.798039
1.238824 1.282941 1.764706
1.238200 1.282612 1.776471
1.238306 1.283780 1.749020
1.238314 1.286490 1.784314
1.238314 1.288275 1.784314
1.238816 1.288941 1.790196
1.238314 1.290059 1.784314
1.238849 1.299983 1.798039
1.238849 1.303579 1.798039
1.238849 1.307175 1.798039
1.238849 1.308973 1.798039
1.238849 1.314367 1.798039
1.238849 1.316165 1.798039
1.238849 1.317963 1.798039
1.238849 1.319761 1.798039
1.238849 1.323357 1.798039
1.239988 1.198482 1.729412
1.239988 1.200212 1.729412
1.239663 1.210229 1.731373
1.239020 1.212843 1.745098
1.239027 1.220306 1.701961
1.239894 1.226231 1.707843
1.239210 1.226871 1.762745
1.239412 1.235871 1.770588
1.239976 1.243529 1.776471
1.239529 1.246416 1.721569
1.239294 1.250118 1.803922
1.239663 1.253514 1.731373
1.239294 1.259137 1.803922
1.239988 1.262471 1.729412
1.239020 1.270431 1.745098
1.239210 1.281516 1.762745
1.239412 1.283677 1.770588
1.239567 1.289363 1.778432
1.239294 1.302431 1.803922
1.239294 1.307843 1.803922
1.239716 1.308488 1.809804
1.239294 1.316863 1.803922
1.239294 1.322275 1.803922
1.240310 1.202306 1.727451
1.240441 1.204412 1.715686
1.240055 1.205075 1.749020
1.240400 1.210867 1.737255
1.240765 1.211098 1.745098
1.240345 1.213992 1.756863
1.240729 1.218604 1.701961
1.240588 1.222941 1.764706
1.240647 1.229859 1.798039
1.240647 1.235253 1.798039
1.240647 1.237051 1.798039
1.240173 1.238380 1.792157
1.240647 1.242445 1.798039
1.240647 1.244243 1.798039
1.240647 1.246041 1.798039
1.240098 1.247235 1.784314
1.240098 1.249020 1.784314
1.240647 1.249637 1.798039
1.240098 1.250804 1.784314
1.240647 1.251435 1.798039
1.240647 1.253233 1.798039
1.240606 1.256718 1.790196
1.240647 1.256830 1.798039
1.240647 1.258628 1.798039
1.240765 1.272177 1.745098
1.240173 1.272431 1.792157
1.240400 1.275145 1.737255
1.240055 1.283780 1.749020
1.240973 1.285041 1.762745
1.240345 1.286024 1.756863
1.240345 1.287780 1.756863
1.240098 1.290059 1.784314
1.240098 1.291843 1.784314
1.240606 1.294312 1.790196
1.240647 1.299983 1.798039
1.240647 1.307175 1.798039
1.240647 1.308973 1.798039
1.240647 1.314367 1.798039
1.240647 1.316165 1.798039
1.240647 1.317963 1.798039
1.240647 1.321559 1.798039
1.240647 1.323357 1.798039
1.241718 1.201941 1.729412
1.241804 1.203326 1.749020
1.241251 1.205098 1.721569
1.241394 1.213692 1.731373
1.241859 1.214377 1.717647
1.241859 1.229835 1.717647
1.241729 1.229418 1.758824
1.241965 1.233004 1.792157
1.241965 1.236588 1.792157
1.241098 1.244706 1.803922
1.241882 1.247235 1.784314
1.241882 1.249020 1.784314
1.241098 1.251922 1.803922
1.241098 1.259137 1.803922
1.241098 1.260941 1.803922
1.241082 1.274388 1.752941
1.241753 1.286165 1.776471
1.241882 1.290059 1.784314
1.241882 1.293628 1.784314
1.241098 1.302431 1.803922
1.241098 1.306039 1.803922
1.241965 1.313651 1.792157
1.241098 1.315059 1.803922
1.241098 1.316863 1.803922
1.241098 1.320471 1.803922
1.242857 1.199279 1.743137
1.242157 1.206128 1.715686
1.242451 1.209890 1.713726
1.242353 1.211294 1.725490
1.242102 1.212235 1.756863
1.242741 1.220488 1.711765
1.242451 1.228741 1.713726
1.242445 1.229859 1.798039
1.242157 1.235294 1.715686
1.242445 1.235253 1.798039
1.242902 1.235686 1.803922
1.242445 1.237051 1.798039
1.242445 1.240647 1.798039
1.242973 1.242973 1.721569
1.242445 1.242445 1.798039
1.242445 1.244243 1.798039
1.242902 1.244706 1.803922
1.242445 1.246041 1.798039
1.242445 1.247839 1.798039
1.242445 1.249637 1.798039
1.242445 1.251435 1.798039
1.242396 1.254928 1.790196
1.242445 1.255032 1.798039
1.242396 1.256718 1.790196
1.242445 1.256830 1.798039
1.242902 1.257333 1.803922
1.242445 1.258628 1.798039
1.242902 1.259137 1.803922
1.242445 1.260426 1.798039
1.242902 1.260941 1.803922
1.242471 1.268500 1.735294
1.242510 1.272177 1.745098
1.242735 1.286804 1.762745
1.242102 1.289537 1.756863
1.242353 1.290000 1.764706
1.242902 1.302431 1.803922
1.242445 1.303579 1.798039
1.242445 1.305377 1.798039
1.242902 1.306039 1.803922
1.242445 1.307175 1.798039
1.242445 1.308973 1.798039
1.242445 1.312569 1.798039
1.242902 1.315059 1.803922
1.242445 1.316165 1.798039
1.242902 1.316863 1.803922
1.242445 1.317963 1.798039
1.242445 1.319761 1.798039
1.242445 1.321559 1.798039
1.242445 1.323357 1.798039
1.242902 1.325882 1.803922
1.243310 1.205737 1.707843
1.243447 1.205400 1.729412
1.243859 1.208722 1.756863
1.243859 1.210479 1.756863
1.243126 1.215424 1.731373
1.243577 1.216094 1.717647
1.243577 1.228118 1.717647
1.243757 1.234796 1.792157
1.243757 1.240173 1.792157
1.243667 1.245451 1.784314
1.243667 1.247235 1.784314
1.243126 1.248320 1.731373
1.243667 1.249020 1.784314
1.243447 1.255553 1.729412
1.243447 1.257282 1.729412
1.243488 1.275147 1.758824
1.243800 1.279800 1.800000
1.243800 1.281600 1.800000
1.243859 1.291294 1.756863
1.243667 1.291843 1.784314
1.243667 1.295412 1.784314
1.243757 1.308275 1.792157
1.244255 1.212843 1.745098
1.244388 1.216812 1.723530
1.244857 1.217155 1.731373
1.244875 1.227267 1.760784
1.244724 1.228788 1.770588
1.244243 1.229859 1.798039
1.244243 1.231657 1.798039
1.244243 1.233455 1.798039
1.244243 1.235253 1.798039
1.244243 1.237051 1.798039
1.244243 1.238849 1.798039
1.244243 1.240647 1.798039
1.244694 1.241251 1.721569
1.244078 1.242353 1.725490
1.244706 1.242902 1.803922
1.244243 1.244243 1.798039
1.244706 1.244706 1.803922
1.244857 1.246588 1.731373
1.244243 1.246041 1.798039
1.244243 1.247839 1.798039
1.244243 1.249637 1.798039
1.244243 1.251435 1.798039
1.244243 1.258628 1.798039
1.244706 1.259137 1.803922
1.244255 1.270431 1.745098
1.244588 1.277894 1.752941
1.244588 1.286659 1.752941
1.244724 1.290759 1.770588
1.244724 1.292530 1.770588
1.244186 1.292522 1.790196
1.244243 1.301781 1.798039
1.244706 1.302431 1.803922
1.244243 1.303579 1.798039
1.244706 1.306039 1.803922
1.244243 1.307175 1.798039
1.244243 1.310771 1.798039
1.244243 1.312569 1.798039
1.244706 1.315059 1.803922
1.244243 1.316165 1.798039
1.244706 1.316863 1.803922
1.244243 1.317963 1.798039
1.244243 1.319761 1.798039
1.244243 1.321559 1.798039
1.245835 1.206690 1.701961
1.245018 1.207445 1.707843
1.245177 1.207130 1.729412
1.245616 1.208722 1.756863
1.245835 1.215200 1.701961
1.245294 1.217812 1.717647
1.245247 1.224141 1.758824
1.245294 1.226400 1.717647
1.245549 1.231212 1.792157
1.245588 1.233579 1.715686
1.245306 1.236423 1.776471
1.245306 1.238200 1.776471
1.245451 1.245451 1.784314
1.245451 1.247235 1.784314
1.245177 1.253824 1.729412
1.245941 1.263294 1.735294
1.245155 1.279392 1.801961
1.245616 1.282510 1.756863
1.245306 1.289718 1.776471
1.245616 1.291294 1.756863
1.245451 1.293628 1.784314
1.245451 1.295412 1.784314
1.245977 1.296102 1.790196
1.246343 1.202765 1.743137
1.246906 1.208859 1.729412
1.246000 1.214588 1.745098
1.246261 1.214531 1.762745
1.246588 1.218886 1.731373
1.246494 1.225247 1.770588
1.246494 1.227018 1.770588
1.246041 1.229859 1.798039
1.246041 1.233455 1.798039
1.246041 1.235253 1.798039
1.246510 1.235686 1.803922
1.246041 1.238849 1.798039
1.246041 1.242445 1.798039
1.246510 1.242902 1.803922
1.246588 1.244857 1.731373
1.246041 1.244243 1.798039
1.246041 1.246041 1.798039
1.246588 1.248320 1.731373
1.246041 1.249637 1.798039
1.246041 1.251435 1.798039
1.246906 1.252094 1.729412
1.246041 1.255032 1.798039
1.246510 1.257333 1.803922
1.246041 1.258628 1.798039
1.246000 1.268686 1.745098
1.246000 1.273922 1.745098
1.246343 1.277720 1.743137
1.246343 1.279463 1.743137
1.246041 1.301781 1.798039
1.246041 1.303579 1.798039
1.246510 1.304235 1.803922
1.246041 1.305377 1.798039
1.246510 1.306039 1.803922
1.246041 1.307175 1.798039
1.246041 1.308973 1.798039
1.246041 1.312569 1.798039
1.246510 1.315059 1.803922
1.246041 1.316165 1.798039
1.246510 1.318667 1.803922
1.246041 1.319761 1.798039
1.246041 1.321559 1.798039
1.246041 1.323357 1.798039
1.247373 1.206965 1.756863
1.247304 1.209559 1.715686
1.247745 1.216333 1.745098
1.247012 1.219530 1.717647
1.247006 1.222382 1.758824
1.247839 1.229859 1.798039
1.247304 1.231863 1.715686
1.247839 1.233455 1.798039
1.247082 1.234647 1.776471
1.247341 1.234796 1.792157
1.247839 1.235253 1.798039
1.247082 1.236423 1.776471
1.247839 1.237051 1.798039
1.247839 1.240647 1.798039
1.247235 1.241882 1.784314
1.247839 1.242445 1.798039
1.247235 1.245451 1.784314
1.247839 1.249637 1.798039
1.247839 1.251435 1.798039
1.247839 1.253233 1.798039
1.247839 1.255032 1.798039
1.247839 1.256830 1.798039
1.247745 1.266941 1.745098
1.247006 1.280424 1.758824
1.247051 1.285529 1.749020
1.247412 1.287184 1.807843
1.247082 1.293271 1.776471
1.247235 1.293628 1.784314
1.247235 1.295412 1.784314
1.247235 1.297196 1.784314
1.247235 1.298981 1.784314
1.247839 1.301781 1.798039
1.247839 1.305377 1.798039
1.247839 1.307175 1.798039
1.247839 1.308973 1.798039
1.247839 1.310771 1.798039
1.247341 1.311859 1.792157
1.247839 1.314367 1.798039
1.247839 1.316165 1.798039
1.247839 1.321559 1.798039
1.247839 1.323357 1.798039
1.248800 1.205075 1.749020
1.248765 1.211829 1.758824
1.248086 1.214967 1.743137
1.248320 1.217155 1.731373
1.248765 1.220624 1.758824
1.248730 1.221247 1.717647
1.248730 1.222965 1.717647
1.248265 1.223477 1.770588
1.248320 1.243126 1.731373
1.248635 1.250365 1.729412
1.248757 1.255714 1.739216
1.248314 1.257333 1.803922
1.248314 1.259137 1.803922
1.248314 1.260941 1.803922
1.248086 1.275977 1.743137
1.248265 1.296071 1.770588
1.248265 1.297841 1.770588
1.248314 1.304235 1.803922
1.248314 1.309647 1.803922
1.248314 1.313255 1.803922
1.248314 1.318667 1.803922
1.248314 1.327686 1.803922
1.249829 1.206251 1.743137
1.249130 1.206965 1.756863
1.249859 1.211984 1.721569
1.249847 1.216541 1.752941
1.249490 1.218078 1.745098
1.249133 1.229420 1.792157
1.249637 1.231657 1.798039
1.249637 1.233455 1.798039
1.249637 1.237051 1.798039
1.249020 1.238314 1.784314
1.249637 1.238849 1.798039
1.249020 1.240098 1.784314
1.249637 1.240647 1.798039
1.249637 1.242445 1.798039
1.249020 1.243667 1.784314
1.249133 1.243757 1.792157
1.249637 1.244243 1.798039
1.249557 1.245977 1.790196
1.249637 1.246041 1.798039
1.249557 1.247767 1.790196
1.249637 1.247839 1.798039
1.249637 1.249637 1.798039
1.249637 1.253233 1.798039
1.249637 1.255032 1.798039
1.249490 1.265196 1.745098
1.249847 1.286659 1.752941
1.249557 1.296102 1.790196
1.249786 1.297380 1.762745
1.249020 1.297196 1.784314
1.249020 1.300765 1.784314
1.249637 1.305377 1.798039
1.249637 1.307175 1.798039
1.249637 1.308973 1.798039
1.249637 1.310771 1.798039
1.249133 1.313651 1.792157
1.249637 1.314367 1.798039
1.249637 1.316165 1.798039
1.249637 1.319761 1.798039
1.249637 1.321559 1.798039
1.250549 1.205075 1.749020
1.250365 1.212318 1.729412
1.250200 1.213429 1.750980
1.250165 1.218824 1.741177
1.250926 1.225835 1.792157
1.250926 1.229420 1.792157
1.250735 1.230147 1.715686
1.250118 1.235686 1.803922
1.250804 1.236530 1.784314
1.250804 1.240098 1.784314
1.250926 1.241965 1.792157
1.250926 1.243757 1.792157
1.250118 1.251922 1.803922
1.250118 1.257333 1.803922
1.250165 1.258871 1.741177
1.250118 1.260941 1.803922
1.250804 1.298981 1.784314
1.250035 1.299612 1.770588
1.250804 1.300765 1.784314
1.250804 1.302549 1.784314
1.250926 1.310067 1.792157
1.250926 1.313651 1.792157
1.250118 1.315059 1.803922
1.250118 1.318667 1.803922
1.251573 1.209737 1.743137
1.251300 1.213641 1.711765
1.251806 1.218165 1.770588
1.251235 1.221569 1.745098
1.251300 1.222200 1.711765
1.251435 1.229859 1.798039
1.251435 1.231657 1.798039
1.251435 1.233455 1.798039
1.251435 1.235253 1.798039
1.251922 1.235686 1.803922
1.251435 1.237051 1.798039
1.251347 1.244186 1.790196
1.251435 1.244243 1.798039
1.251435 1.246041 1.798039
1.251347 1.247767 1.790196
1.251435 1.247839 1.798039
1.251922 1.250118 1.803922
1.251922 1.251922 1.803922
1.251435 1.253233 1.798039
1.251435 1.255032 1.798039
1.251235 1.261706 1.745098
1.251573 1.270747 1.743137
1.251600 1.276141 1.752941
1.251471 1.289559 1.813725
1.251549 1.297380 1.762745
1.251806 1.301382 1.770588
1.251806 1.303153 1.770588
1.251435 1.305377 1.798039
1.251435 1.307175 1.798039
1.251922 1.307843 1.803922
1.251435 1.308973 1.798039
1.251435 1.314367 1.798039
1.251435 1.317963 1.798039
1.251435 1.319761 1.798039
1.251435 1.321559 1.798039
1.251922 1.322275 1.803922
1.251435 1.323357 1.798039
1.251922 1.324078 1.803922
1.252298 1.208573 1.749020
1.252980 1.223314 1.745098
1.252561 1.224765 1.737255
1.252412 1.225765 1.776471
1.252706 1.232000 1.725490
1.252588 1.232961 1.784314
1.252588 1.234745 1.784314
1.252588 1.238314 1.784314
1.252643 1.293051 1.756863
1.252588 1.300765 1.784314
1.252588 1.302549 1.784314
1.252588 1.304333 1.784314
1.252588 1.306118 1.784314
1.253316 1.211480 1.743137
1.253824 1.215777 1.729412
1.253577 1.216394 1.770588
1.253316 1.221939 1.743137
1.253514 1.224080 1.731373
1.253233 1.229859 1.798039
1.253233 1.231657 1.798039
1.253725 1.233882 1.803922
1.253233 1.235253 1.798039
1.253233 1.237051 1.798039
1.253233 1.238849 1.798039
1.253514 1.239663 1.731373
1.253233 1.244243 1.798039
1.253824 1.245177 1.729412
1.253137 1.245977 1.790196
1.253233 1.246041 1.798039
1.253233 1.249637 1.798039
1.253233 1.253233 1.798039
1.253725 1.255529 1.803922
1.253316 1.269004 1.743137
1.253312 1.297380 1.762745
1.253137 1.299682 1.790196
1.253137 1.303263 1.790196
1.253233 1.307175 1.798039
1.253725 1.307843 1.803922
1.253233 1.308973 1.798039
1.253233 1.310771 1.798039
1.253233 1.314367 1.798039
1.253233 1.316165 1.798039
1.253725 1.316863 1.803922
1.253233 1.319761 1.798039
1.253725 1.322275 1.803922
1.253233 1.323357 1.798039
1.253725 1.327686 1.803922
1.254400 1.206965 1.756863
1.254400 1.208722 1.756863
1.254041 1.211829 1.758824
1.254188 1.223988 1.776471
1.254726 1.225059 1.745098
1.254188 1.225765 1.776471
1.254510 1.229420 1.792157
1.254373 1.231177 1.784314
1.254510 1.233004 1.792157
1.254373 1.234745 1.784314
1.254928 1.242396 1.790196
1.254618 1.252882 1.735294
1.254726 1.258216 1.745098
1.254047 1.278533 1.749020
1.254041 1.282182 1.758824
1.254333 1.289667 1.766667
1.254400 1.291294 1.756863
1.254400 1.293051 1.756863
1.254776 1.301118 1.782353
1.254373 1.304333 1.784314
1.254188 1.305706 1.776471
1.254373 1.306118 1.784314
1.254373 1.307902 1.784314
1.254928 1.308633 1.790196
1.254373 1.309686 1.784314
1.254373 1.311471 1.784314
1.254510 1.311859 1.792157
1.255453 1.208177 1.750980
1.255075 1.211006 1.762745
1.255059 1.214967 1.743137
1.255347 1.214624 1.770588
1.255024 1.215428 1.721569
1.255347 1.216394 1.770588
1.255573 1.220004 1.778432
1.255800 1.222382 1.758824
1.255245 1.225812 1.731373
1.255032 1.231657 1.798039
1.255032 1.235253 1.798039
1.255245 1.237931 1.731373
1.255032 1.237051 1.798039
1.255032 1.242445 1.798039
1.255032 1.244243 1.798039
1.255529 1.244706 1.803922
1.255529 1.246510 1.803922
1.255714 1.248757 1.739216
1.255032 1.249637 1.798039
1.255529 1.253725 1.803922
1.255529 1.255529 1.803922
1.255059 1.265518 1.743137
1.255453 1.281718 1.750980
1.255075 1.297380 1.762745
1.255032 1.307175 1.798039
1.255032 1.308973 1.798039
1.255032 1.310771 1.798039
1.255529 1.315059 1.803922
1.255032 1.316165 1.798039
1.255529 1.316863 1.803922
1.255032 1.319761 1.798039
1.255032 1.323357 1.798039
1.256157 1.208722 1.756863
1.256837 1.211006 1.762745
1.256745 1.217149 1.721569
1.256353 1.218176 1.735294
1.256859 1.225306 1.752941
1.256471 1.226804 1.745098
1.256977 1.227543 1.731373
1.256157 1.227608 1.784314
1.256157 1.229392 1.784314
1.256830 1.229859 1.798039
1.256737 1.230149 1.772549
1.256830 1.231657 1.798039
1.256745 1.232643 1.721569
1.256157 1.232961 1.784314
1.256157 1.233726 1.725490
1.256830 1.233455 1.798039
1.256830 1.235253 1.798039
1.256830 1.237051 1.798039
1.256830 1.238849 1.798039
1.256718 1.240606 1.790196
1.256830 1.240647 1.798039
1.256830 1.242445 1.798039
1.256830 1.244243 1.798039
1.256830 1.246041 1.798039
1.256830 1.247839 1.798039
1.256353 1.251147 1.735294
1.256471 1.256471 1.745098
1.256802 1.263775 1.743137
1.256157 1.291294 1.756863
1.256737 1.292188 1.772549
1.256157 1.306118 1.784314
1.256157 1.307902 1.784314
1.256157 1.309686 1.784314
1.256157 1.311471 1.784314
1.256302 1.311859 1.792157
1.256718 1.312214 1.790196
1.256830 1.312569 1.798039
1.256157 1.313255 1.784314
1.256830 1.314367 1.798039
1.256830 1.316165 1.798039
1.256830 1.317963 1.798039
1.256830 1.319761 1.798039
1.256830 1.321559 1.798039
1.256830 1.323357 1.798039
1.257914 1.210479 1.756863
1.257914 1.212235 1.756863
1.257118 1.214624 1.770588
1.257545 1.217318 1.749020
1.257130 1.218824 1.741177
1.257559 1.224141 1.758824
1.257941 1.225824 1.784314
1.257941 1.227608 1.784314
1.257941 1.229392 1.784314
1.257282 1.243447 1.729412
1.257333 1.244706 1.803922
1.257333 1.246510 1.803922
1.257333 1.255529 1.803922
1.257559 1.278665 1.758824
1.257914 1.287780 1.756863
1.257741 1.307482 1.776471
1.257941 1.309686 1.784314
1.257941 1.313255 1.784314
1.257333 1.316863 1.803922
1.257333 1.325882 1.803922
1.258235 1.210588 1.764706
1.258888 1.212853 1.770588
1.258888 1.214624 1.770588
1.258467 1.218871 1.721569
1.258545 1.218453 1.743137
1.258216 1.228549 1.745098
1.258510 1.228377 1.772549
1.258708 1.229275 1.731373
1.258628 1.229859 1.798039
1.258467 1.230922 1.721569
1.258628 1.231657 1.798039
1.258508 1.233445 1.790196
1.258708 1.234469 1.731373
1.258628 1.235253 1.798039
1.258094 1.236588 1.792157
1.258508 1.237026 1.790196
1.258628 1.238849 1.798039
1.258628 1.240647 1.798039
1.258628 1.242445 1.798039
1.258628 1.244243 1.798039
1.258628 1.246041 1.798039
1.258545 1.253316 1.743137
1.258216 1.254726 1.745098
1.258628 1.312569 1.798039
1.258628 1.314367 1.798039
1.258628 1.317963 1.798039
1.258628 1.321559 1.798039
1.259012 1.219235 1.729412
1.259726 1.222255 1.784314
1.259902 1.224412 1.774510
1.259726 1.225824 1.784314
1.259726 1.227608 1.784314
1.259012 1.241718 1.729412
1.259137 1.242902 1.803922
1.259137 1.244706 1.803922
1.259726 1.313255 1.784314
1.259137 1.316863 1.803922
1.259137 1.325882 1.803922
1.260000 1.210588 1.764706
1.260659 1.212853 1.770588
1.260439 1.225812 1.731373
1.260282 1.228377 1.772549
1.260426 1.229859 1.798039
1.260439 1.231006 1.731373
1.260426 1.231657 1.798039
1.260439 1.232737 1.731373
1.260426 1.233455 1.798039
1.260298 1.235235 1.790196
1.260426 1.235253 1.798039
1.260426 1.237051 1.798039
1.260426 1.238849 1.798039
1.260426 1.240647 1.798039
1.260426 1.242445 1.798039
1.260426 1.244243 1.798039
1.260722 1.278329 1.760784
1.260282 1.293961 1.772549
1.260941 1.315059 1.803922
1.260426 1.321559 1.798039
1.260426 1.323357 1.798039
1.261428 1.215749 1.756863
1.261428 1.217506 1.756863
1.261043 1.220816 1.749020
1.261559 1.221647 1.735294
1.261510 1.222255 1.784314
1.261510 1.224039 1.784314
1.261510 1.225824 1.784314
1.261400 1.226067 1.766667
1.261706 1.232039 1.745098
1.261706 1.251235 1.745098
1.261775 1.267039 1.754902
1.261077 1.273388 1.758824
1.261428 1.282510 1.756863
1.261428 1.284267 1.756863
1.262055 1.228377 1.772549
1.262224 1.229859 1.798039
1.262792 1.231310 1.749020
1.262224 1.233455 1.798039
1.262224 1.235253 1.798039
1.262224 1.237051 1.798039
1.262224 1.238849 1.798039
1.262471 1.239988 1.729412
1.262031 1.258545 1.743137
1.262792 1.266290 1.749020
1.262126 1.293855 1.762745
1.262055 1.293961 1.772549
1.262088 1.315794 1.790196
1.262224 1.321559 1.798039
1.262745 1.324078 1.803922
1.262745 1.327686 1.803922
1.263888 1.218057 1.762745
1.263184 1.219263 1.756863
1.263347 1.220259 1.723530
1.263294 1.220471 1.784314
1.263294 1.222255 1.784314
1.263294 1.224039 1.784314
1.263828 1.228377 1.772549
1.263124 1.231677 1.747059
1.263124 1.254388 1.747059
1.263775 1.256802 1.743137
1.263184 1.280753 1.756863
1.263888 1.292092 1.762745
1.263828 1.293961 1.772549
1.264847 1.218659 1.776471
1.264941 1.221020 1.756863
1.264541 1.224314 1.749020
1.264022 1.229859 1.798039
1.264022 1.231657 1.798039
1.264022 1.233455 1.798039
1.264208 1.234441 1.750980
1.264022 1.235253 1.798039
1.264541 1.264541 1.749020
1.264941 1.277239 1.756863
1.264941 1.278996 1.756863
1.264078 1.305027 1.780392
1.264031 1.308125 1.837255
1.264549 1.322275 1.803922
1.264549 1.324078 1.803922
1.265971 1.216394 1.770588
1.265079 1.220471 1.784314
1.265079 1.222255 1.784314
1.265930 1.224424 1.729412
1.265518 1.225426 1.743137
1.265820 1.229859 1.798039
1.265820 1.231657 1.798039
1.265196 1.233784 1.745098
1.265820 1.233455 1.798039
1.265820 1.235253 1.798039
1.265518 1.248086 1.743137
1.265196 1.249490 1.745098
1.265600 1.292188 1.772549
1.265226 1.300716 1.774510
1.265859 1.301467 1.780392
1.265971 1.303153 1.770588
1.266863 1.220471 1.784314
1.266698 1.224533 1.756863
1.266765 1.225118 1.735294
1.266290 1.226063 1.749020
1.266941 1.235529 1.745098
1.266353 1.235686 1.803922
1.266941 1.247745 1.745098
1.266698 1.275482 1.756863
1.266353 1.324078 1.803922
1.266353 1.327686 1.803922
1.267741 1.216394 1.770588
1.267741 1.218165 1.770588
1.267659 1.226153 1.729412
1.267618 1.229859 1.798039
1.267618 1.231657 1.798039
1.267618 1.233455 1.798039
1.267659 1.234800 1.729412
1.267741 1.301382 1.770588
1.268647 1.220471 1.784314
1.268500 1.226853 1.735294
1.268039 1.227812 1.749020
1.268255 1.236102 1.786275
1.268686 1.237275 1.745098
1.268157 1.241098 1.803922
1.268500 1.242471 1.735294
1.268686 1.246000 1.745098
1.268571 1.309077 1.841177
1.268571 1.310918 1.841177
1.268078 1.310471 1.843137
1.268157 1.327686 1.803922
1.269512 1.218165 1.770588
1.269512 1.219935 1.770588
1.269177 1.226871 1.762745
1.269004 1.227169 1.743137
1.269420 1.228471 1.780392
1.269416 1.229859 1.798039
1.269627 1.233104 1.739216
1.269004 1.253316 1.743137
1.269130 1.256859 1.752941
1.269788 1.259294 1.749020
1.269512 1.301382 1.770588
1.270176 1.218659 1.776471
1.270432 1.220471 1.784314
1.270041 1.236102 1.786275
1.270431 1.239020 1.745098
1.270235 1.240735 1.735294
1.270431 1.244255 1.745098
1.270747 1.251573 1.743137
1.271282 1.221706 1.770588
1.271282 1.223477 1.770588
1.271039 1.226284 1.790196
1.271969 1.229804 1.756863
1.271214 1.229859 1.798039
1.271828 1.236102 1.786275
1.271971 1.240735 1.735294
1.271282 1.296071 1.770588
1.271828 1.305767 1.786275
1.271953 1.307482 1.776471
1.272216 1.220471 1.784314
1.272216 1.222255 1.784314
1.272702 1.230396 1.762745
1.272177 1.242510 1.745098
1.272490 1.251573 1.743137
1.272702 1.277990 1.762745
1.273053 1.223477 1.770588
1.273053 1.225247 1.770588
1.273726 1.231561 1.756863
1.273614 1.236102 1.786275
1.273388 1.241729 1.758824
1.273053 1.294300 1.770588
1.273053 1.296071 1.770588
1.273729 1.303929 1.776471
1.273614 1.305767 1.786275
1.274000 1.220471 1.784314
1.274000 1.222255 1.784314
1.274824 1.227018 1.770588
1.274824 1.228788 1.770588
1.274233 1.230655 1.743137
1.274465 1.232159 1.762745
1.274059 1.240716 1.754902
1.274233 1.249829 1.743137
1.274465 1.276227 1.762745
1.275784 1.220471 1.784314
1.275784 1.222255 1.784314
1.275035 1.233059 1.749020
1.275482 1.233318 1.756863
1.275216 1.241090 1.796078
1.275977 1.248086 1.743137
1.275482 1.266698 1.756863
1.275506 1.302153 1.776471
1.275618 1.313294 1.794118
1.276465 1.244947 1.750980
1.276227 1.274465 1.762745
1.276594 1.287218 1.770588
1.276594 1.288988 1.770588
1.277569 1.220471 1.784314
1.277569 1.222255 1.784314
1.277282 1.231094 1.776471
1.277720 1.232398 1.743137
1.277239 1.235075 1.756863
1.277894 1.244588 1.752941
1.277720 1.248086 1.743137
1.277990 1.272702 1.762745
1.277282 1.296823 1.776471
1.277412 1.313294 1.794118
1.278665 1.245247 1.758824
1.278665 1.257559 1.758824
1.278365 1.285447 1.770588
1.278000 1.315800 1.800000
1.279353 1.220471 1.784314
1.279353 1.225824 1.784314
1.279463 1.234141 1.743137
1.279800 1.243800 1.800000
1.279463 1.244600 1.743137
1.279463 1.246343 1.743137
1.279059 1.295047 1.776471
1.279059 1.296823 1.776471
1.279353 1.313255 1.784314
1.279392 1.319035 1.801961
1.280835 1.234647 1.776471
1.280135 1.235871 1.770588
1.280282 1.236557 1.749020
1.280753 1.236831 1.756863
1.280835 1.236423 1.776471
1.280424 1.247006 1.758824
1.280424 1.255800 1.758824
1.280135 1.283677 1.770588
1.280135 1.285447 1.770588
1.280835 1.295047 1.776471
1.280604 1.314729 1.796078
1.281137 1.225824 1.784314
1.281780 1.228075 1.790196
1.281137 1.229392 1.784314
1.281906 1.235871 1.770588
1.281206 1.237628 1.743137
1.281206 1.242857 1.743137
1.281600 1.243800 1.800000
1.281516 1.269177 1.762745
1.281906 1.283677 1.770588
1.281137 1.311471 1.784314
1.282922 1.225824 1.784314
1.282922 1.229392 1.784314
1.282922 1.231177 1.784314
1.282249 1.234231 1.778432
1.282612 1.236423 1.776471
1.282612 1.238200 1.776471
1.282510 1.254400 1.756863
1.282182 1.254041 1.758824
1.282510 1.263184 1.756863
1.282612 1.291494 1.776471
1.282249 1.305369 1.778432
1.282922 1.307902 1.784314
1.282922 1.309686 1.784314
1.282922 1.311471 1.784314
1.282922 1.313255 1.784314
1.283571 1.226284 1.790196
1.283571 1.228075 1.790196
1.283278 1.239210 1.762745
1.283677 1.239412 1.770588
1.283780 1.240055 1.749020
1.283278 1.269177 1.762745
1.283677 1.281906 1.770588
1.284706 1.229392 1.784314
1.284706 1.232961 1.784314
1.284706 1.234745 1.784314
1.284388 1.238200 1.776471
1.284798 1.245155 1.801961
1.284267 1.261428 1.756863
1.284706 1.307902 1.784314
1.284706 1.309686 1.784314
1.284706 1.311471 1.784314
1.284706 1.313255 1.784314
1.285361 1.226284 1.790196
1.285361 1.228075 1.790196
1.285361 1.231655 1.790196
1.285447 1.239412 1.770588
1.285041 1.267414 1.762745
1.285447 1.278365 1.770588
1.285447 1.280135 1.770588
1.285361 1.314004 1.790196
1.285361 1.317584 1.790196
1.286490 1.227608 1.784314
1.286490 1.232961 1.784314
1.286490 1.234745 1.784314
1.286490 1.236530 1.784314
1.286024 1.240345 1.756863
1.286165 1.241753 1.776471
1.286804 1.242735 1.762745
1.286165 1.286165 1.776471
1.286490 1.304333 1.784314
1.286490 1.306118 1.784314
1.286490 1.307902 1.784314
1.287151 1.226284 1.790196
1.287151 1.228075 1.790196
1.287151 1.231655 1.790196
1.287780 1.240345 1.756863
1.287941 1.241753 1.776471
1.287218 1.242953 1.770588
1.287218 1.276594 1.770588
1.287218 1.278365 1.770588
1.287941 1.284388 1.776471
1.288941 1.228075 1.790196
1.288941 1.229865 1.790196
1.288941 1.231655 1.790196
1.288275 1.232961 1.784314
1.288941 1.235235 1.790196
1.288275 1.236530 1.784314
1.288275 1.238314 1.784314
1.288567 1.242735 1.762745
1.288988 1.242953 1.770588
1.288275 1.298981 1.784314
1.288275 1.307902 1.784314
1.288941 1.308633 1.790196
1.288941 1.310424 1.790196
1.289537 1.242102 1.756863
1.289718 1.245306 1.776471
1.289667 1.254333 1.766667
1.289537 1.257914 1.756863
1.289363 1.292920 1.778432
1.290992 1.229859 1.798039
1.290731 1.233445 1.790196
1.290731 1.235235 1.790196
1.290059 1.236530 1.784314
1.290059 1.238314 1.784314
1.290059 1.240098 1.784314
1.290759 1.244724 1.770588
1.290977 1.248765 1.758824
1.290977 1.254041 1.758824
1.290329 1.263888 1.762745
1.290059 1.297196 1.784314
1.290059 1.298981 1.784314
1.290731 1.306843 1.790196
1.291843 1.240098 1.784314
1.291294 1.243859 1.756863
1.291843 1.243667 1.784314
1.291494 1.245306 1.776471
1.291294 1.254400 1.756863
1.291294 1.256157 1.756863
1.291843 1.297196 1.784314
1.291843 1.298981 1.784314
1.291843 1.302549 1.784314
1.292790 1.229859 1.798039
1.292522 1.238816 1.790196
1.292530 1.244724 1.770588
1.292522 1.244186 1.790196
1.292530 1.246494 1.770588
1.292188 1.256737 1.772549
1.292092 1.263888 1.762745
1.292530 1.274824 1.770588
1.292522 1.305053 1.790196
1.292522 1.306843 1.790196
1.292522 1.308633 1.790196
1.292522 1.310424 1.790196
1.293628 1.243667 1.784314
1.293051 1.245616 1.756863
1.293628 1.245451 1.784314
1.293051 1.247373 1.756863
1.293051 1.250886 1.756863
1.293961 1.260282 1.772549
1.293961 1.262055 1.772549
1.293961 1.263828 1.772549
1.293271 1.280835 1.776471
1.293628 1.298981 1.784314
1.293628 1.300765 1.784314
1.294588 1.229859 1.798039
1.294588 1.231657 1.798039
1.294312 1.245977 1.790196
1.294300 1.246494 1.770588
1.294300 1.273053 1.770588
1.294312 1.305053 1.790196
1.294312 1.306843 1.790196
1.294312 1.308633 1.790196
1.294312 1.310424 1.790196
1.295412 1.243667 1.784314
1.295412 1.245451 1.784314
1.295412 1.247235 1.784314
1.295618 1.249786 1.762745
1.295047 1.279059 1.776471
1.295047 1.280835 1.776471
1.295412 1.297196 1.784314
1.295412 1.302549 1.784314
1.296386 1.231657 1.798039
1.296386 1.233455 1.798039
1.296102 1.245977 1.790196
1.296071 1.248265 1.770588
1.296477 1.269800 1.778432
1.296071 1.273053 1.770588
1.296102 1.299682 1.790196
1.296102 1.305053 1.790196
1.296102 1.308633 1.790196
1.296386 1.321559 1.798039
1.296386 1.323357 1.798039
1.297892 1.245977 1.790196
1.297196 1.247235 1.784314
1.297841 1.248265 1.770588
1.297196 1.249020 1.784314
1.297380 1.253312 1.762745
1.297380 1.256837 1.762745
1.297380 1.258600 1.762745
1.297196 1.290059 1.784314
1.297196 1.291843 1.784314
1.297196 1.293628 1.784314
1.297196 1.295412 1.784314
1.297892 1.297892 1.790196
1.297892 1.299682 1.790196
1.297196 1.300765 1.784314
1.297892 1.306843 1.790196
1.297892 1.308633 1.790196
1.297522 1.317235 1.792157
