ply
format ascii 1.0
element vertex 1773
property float x
property float y
property float z
end_header
0.679967 0.152984 2.467507
0.682213 0.151568 2.496359
0.694475 0.159971 2.539216
0.693173 0.157223 2.546078
0.673655 0.164548 2.812745
0.675275 0.157729 2.833333
0.683459 0.156163 2.865686
0.679791 0.156767 2.889706
0.682406 0.147418 2.928758
0.680279 0.150306 2.947059
0.680186 0.154955 2.979552
0.682999 0.152029 2.995588
0.681329 0.158529 3.025490
0.689544 0.159116 3.060131
0.684282 0.157200 3.082353
0.686833 0.155392 3.107843
0.689421 0.154263 3.148039
0.691402 0.156974 3.171569
0.675053 0.188841 2.170588
0.676529 0.181135 2.182353
0.678480 0.185151 2.219328
0.684993 0.180607 2.248366
0.695513 0.177298 2.280392
0.679741 0.180063 2.338562
0.680522 0.181927 2.358824
0.686957 0.179162 2.388796
0.691063 0.187109 2.414216
0.695735 0.192853 2.441176
0.673780 0.171553 2.486274
0.683571 0.170267 2.503922
0.689818 0.170979 2.526797
0.682993 0.171178 2.554902
0.678901 0.180693 2.581373
0.690288 0.181406 2.609804
0.673941 0.181294 2.627451
0.695744 0.186601 2.665686
0.685360 0.189267 2.698319
0.680907 0.181937 2.729085
0.687483 0.187963 2.777778
0.688882 0.179953 2.811765
0.681727 0.181200 2.838562
0.681956 0.177661 2.865360
0.688107 0.184916 2.889216
0.682668 0.186089 2.915359
0.685721 0.183860 2.947794
0.691688 0.183594 2.977124
0.682212 0.170553 2.992157
0.684655 0.169647 3.029412
0.694124 0.214498 1.841177
0.690423 0.212399 1.945752
0.678593 0.213231 1.974332
0.682078 0.216641 1.998463
0.687879 0.215430 2.024837
0.686565 0.212581 2.058263
0.682871 0.212455 2.080392
0.687195 0.209456 2.108715
0.690179 0.208104 2.137433
0.683183 0.206520 2.168845
0.685496 0.203919 2.192941
0.688269 0.204395 2.218207
0.694762 0.206222 2.253922
0.678333 0.204207 2.363530
0.679480 0.208633 2.392549
0.687775 0.205910 2.414795
0.682584 0.216746 2.442157
0.684844 0.218366 2.481373
0.682733 0.218167 2.566667
0.681986 0.212227 2.588235
0.677463 0.211873 2.615686
0.683259 0.210396 2.639496
0.687446 0.216995 2.667974
0.672300 0.218700 2.700000
0.681649 0.209876 2.721786
0.685351 0.212721 2.752381
0.685412 0.211632 2.784594
0.681617 0.207857 2.803361
0.684430 0.209441 2.839951
0.686815 0.197462 2.861765
0.687001 0.209720 2.892647
0.685439 0.221990 2.920915
0.674900 0.227800 1.700000
0.686745 0.232941 1.725490
0.692992 0.235478 1.752941
0.674471 0.232510 1.921569
0.676793 0.237308 1.972222
0.680596 0.232041 1.995956
0.691203 0.234027 2.027015
0.691178 0.244065 2.050980
0.671912 0.243941 2.139869
0.674770 0.243842 2.162745
0.681122 0.245686 2.193627
0.680775 0.248200 2.216078
0.689678 0.244075 2.239216
0.688015 0.226872 2.466013
0.679206 0.236558 2.495294
0.685177 0.241641 2.534640
0.683847 0.242142 2.553268
0.692478 0.237941 2.586275
0.683057 0.231744 2.613726
0.684901 0.229180 2.634314
0.689207 0.233968 2.666177
0.682704 0.235894 2.699755
0.682124 0.234921 2.731653
0.684197 0.235069 2.750802
0.681553 0.235761 2.781863
0.682317 0.240233 2.809804
0.685972 0.240610 2.830719
0.686577 0.242964 2.866667
0.687919 0.246611 2.884314
0.694675 0.234834 2.922876
0.695737 0.240243 2.948039
0.696706 0.243106 2.964706
0.672892 0.279314 1.813725
0.674629 0.277678 1.831373
0.673831 0.277920 1.855294
0.682512 0.273744 1.883660
0.678278 0.275589 1.913841
0.684154 0.276971 1.945658
0.683697 0.276059 1.973002
0.683215 0.270339 1.997111
0.684994 0.269495 2.025490
0.685273 0.272604 2.055098
0.689766 0.275371 2.082353
0.677611 0.269221 2.108824
0.679400 0.265106 2.142402
0.677153 0.266355 2.165490
0.684649 0.270825 2.196471
0.685389 0.265861 2.216615
0.689323 0.267245 2.249020
0.685455 0.270996 2.277255
0.697561 0.267937 2.309804
0.698202 0.273714 2.319608
0.671986 0.277818 2.374510
0.695647 0.251922 2.862745
0.693100 0.252300 2.900000
0.692946 0.253835 2.917647
0.684109 0.291619 1.803479
0.685848 0.283422 1.825630
0.690372 0.281579 1.857108
0.686831 0.280948 1.884314
0.684968 0.282651 1.909804
0.684005 0.283450 1.942919
0.689504 0.287457 1.958824
0.676333 0.283722 1.998039
0.695248 0.280628 2.022549
0.690363 0.280267 2.060784
0.682293 0.280727 2.083333
0.682908 0.282481 2.106128
0.685729 0.284794 2.134902
0.679206 0.287194 2.165882
0.683648 0.287286 2.194706
0.688040 0.287445 2.218895
0.684106 0.285312 2.244662
0.692243 0.286129 2.270915
0.692039 0.282116 2.302941
0.698202 0.287631 2.319608
0.676184 0.286255 2.392157
0.670518 0.289100 2.429412
0.677553 0.289678 2.454902
0.690541 0.301484 2.501961
0.723441 0.003573 1.786275
0.712394 0.015296 1.798419
0.703409 0.023074 1.826203
0.708103 0.023058 1.853159
0.711261 0.022874 1.885360
0.709963 0.024192 1.912457
0.717252 0.025201 1.938562
0.716047 0.027465 1.961765
0.721471 0.055000 1.617647
0.722402 0.054811 1.636275
0.701235 0.035684 1.784314
0.715980 0.041399 1.799659
0.713911 0.042506 1.826772
0.722454 0.042629 1.853726
0.717212 0.039299 1.883193
0.706415 0.045056 1.917974
0.707760 0.032407 1.944444
0.712463 0.038450 1.967723
0.720703 0.042439 1.993277
0.726247 0.040235 2.011765
0.698682 0.046118 2.305882
0.705875 0.045729 2.345098
0.714443 0.049682 2.365686
0.713255 0.047012 2.390850
0.708022 0.052041 2.420588
0.714007 0.043001 2.443530
0.721584 0.039404 2.462745
0.710377 0.062588 1.564706
0.717999 0.059039 1.807290
0.717820 0.061778 1.826528
0.724449 0.062484 1.853502
0.723945 0.062376 1.890196
0.709629 0.056692 1.954902
0.706010 0.059412 1.980392
0.710607 0.062669 1.996078
0.715136 0.069019 2.029972
0.712104 0.072421 2.054412
0.713064 0.073592 2.083007
0.717811 0.072429 2.109150
0.708653 0.071856 2.138431
0.716465 0.071819 2.166063
0.713151 0.075084 2.197712
0.708537 0.076052 2.223922
0.710415 0.076218 2.247549
0.708541 0.071503 2.279167
0.710930 0.069698 2.308235
0.714667 0.070348 2.334454
0.714531 0.064806 2.361656
0.718083 0.062115 2.389706
0.711817 0.059877 2.419118
0.714072 0.062615 2.445490
0.716640 0.070669 2.471177
0.725788 0.074824 2.494118
0.709977 0.083082 2.517647
0.699451 0.106039 2.039216
0.704159 0.108806 2.052941
0.714666 0.107430 2.075980
0.700292 0.110016 2.115686
0.709378 0.109300 2.143137
0.714353 0.106071 2.164706
0.720176 0.109118 2.182353
0.710205 0.086813 2.245098
0.719280 0.086399 2.273856
0.723557 0.084847 2.356863
0.712910 0.109678 2.384314
0.719314 0.089294 2.480392
0.708693 0.091719 2.501307
0.708231 0.101728 2.525490
0.717386 0.093775 2.557516
0.713850 0.103961 2.577124
0.717024 0.105705 2.609804
0.714691 0.098721 2.632353
0.709592 0.128734 2.059804
0.715013 0.122170 2.082571
0.712813 0.127666 2.110196
0.709882 0.120488 2.132598
0.717923 0.129785 2.168067
0.716592 0.130937 2.194771
0.720414 0.127640 2.223529
0.699897 0.128476 2.502614
0.706863 0.122446 2.524510
0.710070 0.125806 2.558824
0.711958 0.126780 2.579552
0.711472 0.123595 2.615686
0.702000 0.123000 3.000000
0.705018 0.131906 3.032353
0.706588 0.134588 3.058824
0.722478 0.131498 3.094118
0.723214 0.130365 3.103922
0.718235 0.139118 3.235294
0.718063 0.157624 1.592157
0.701082 0.150494 1.835294
0.722824 0.156235 1.882353
0.715482 0.156867 1.913072
0.716310 0.148608 2.138235
0.703682 0.142490 2.192157
0.711235 0.141804 2.215686
0.717529 0.147529 2.235294
0.700678 0.147210 2.282353
0.708297 0.159518 2.303431
0.714794 0.156829 2.332108
0.711769 0.156305 2.360349
0.720987 0.150328 2.386275
0.716098 0.157784 2.427451
0.708978 0.155655 2.444771
0.712706 0.158510 2.470425
0.714149 0.152944 2.497059
0.711150 0.153385 2.535294
0.711078 0.148933 2.553268
0.715682 0.149668 2.580610
0.714872 0.156330 2.616176
0.725867 0.165455 2.668628
0.699067 0.143926 2.937255
0.705888 0.142965 2.978432
0.706463 0.155300 3.045098
0.701404 0.151947 3.069608
0.698827 0.166976 3.092157
0.711851 0.160042 3.117647
0.724049 0.160555 3.148039
0.703494 0.161253 3.161765
0.714475 0.163400 3.203922
0.720051 0.160739 3.280392
0.718208 0.188698 1.925490
0.720867 0.188182 1.937451
0.723534 0.191344 1.963866
0.699627 0.191833 2.256863
0.705038 0.176267 2.277255
0.711737 0.182173 2.305882
0.717762 0.178401 2.333769
0.721235 0.182082 2.364706
0.700472 0.179061 2.419608
0.702381 0.177925 2.443922
0.713413 0.181979 2.474292
0.719003 0.178644 2.500436
0.721221 0.180685 2.523529
0.717773 0.176467 2.557516
0.704330 0.176738 2.586275
0.705922 0.182169 2.613165
0.717314 0.176461 2.633987
0.716782 0.186864 2.669608
0.703867 0.183729 2.701961
0.710114 0.189549 2.773856
0.703047 0.190440 2.863726
0.703059 0.193341 2.929412
0.698453 0.173876 2.947059
0.713067 0.179765 2.996078
0.716112 0.181294 3.021569
0.705828 0.184356 3.055556
0.703454 0.177779 3.092157
0.715255 0.180369 3.109804
0.701229 0.190945 3.292157
0.714498 0.213584 1.890196
0.724796 0.214855 1.912418
0.714516 0.203652 1.945130
0.713955 0.211812 1.967998
0.714591 0.212238 1.996990
0.711779 0.215963 2.026560
0.716244 0.214165 2.054902
0.714154 0.217176 2.088235
0.713025 0.216162 2.110621
0.706832 0.213298 2.136601
0.711877 0.212980 2.167892
0.711275 0.213335 2.193627
0.712403 0.209384 2.217367
0.709082 0.209741 2.249265
0.713869 0.208690 2.280719
0.712767 0.208992 2.302941
0.718476 0.206103 2.328922
0.721938 0.204496 2.357353
0.702781 0.206179 2.440196
0.709644 0.206989 2.464052
0.711443 0.211887 2.497712
0.716226 0.212920 2.524837
0.722592 0.214856 2.557843
0.723988 0.221576 2.576471
0.703106 0.220376 2.623529
0.707837 0.217184 2.637909
0.709845 0.214994 2.665360
0.711434 0.206734 2.702451
0.714874 0.205478 2.724090
0.711252 0.219061 2.749673
0.708587 0.214858 2.783137
0.711144 0.208455 2.812255
0.707651 0.207527 2.836275
0.709504 0.204205 2.867843
0.707116 0.207081 2.896079
0.711635 0.207076 2.916578
0.711153 0.209547 2.946324
0.719357 0.219969 2.972549
0.707539 0.207734 3.010784
0.711978 0.211095 3.026471
0.724353 0.215765 3.082353
0.702682 0.237776 1.774510
0.715476 0.231059 1.805229
0.722682 0.238261 1.832680
0.724135 0.226785 1.862745
0.713624 0.229422 1.901307
0.724401 0.235017 1.934314
0.715188 0.229606 1.976164
0.717402 0.240740 1.995870
0.715820 0.233099 2.026320
0.715014 0.231257 2.052856
0.717487 0.237672 2.077828
0.714201 0.246244 2.101634
0.724197 0.248876 2.136275
0.726286 0.223975 2.174510
0.726141 0.224118 2.241177
0.706641 0.231131 2.525980
0.714356 0.233857 2.562745
0.721024 0.237757 2.584314
0.712298 0.233939 2.616863
0.712597 0.241051 2.639216
0.700788 0.235674 2.667974
0.712750 0.234970 2.694706
0.722775 0.234561 2.727451
0.710835 0.240088 2.755182
0.712741 0.240802 2.775980
0.704858 0.231821 2.815686
0.714264 0.242422 2.832157
0.723209 0.243320 2.896732
0.717753 0.232471 2.905882
0.716939 0.232758 2.946405
0.711802 0.241674 3.005882
0.703529 0.251512 1.758824
0.717545 0.256018 1.802941
0.720016 0.258588 1.827451
0.708012 0.278531 1.894771
0.711048 0.277425 1.916667
0.710600 0.278552 1.938889
0.718769 0.277585 1.965196
0.713245 0.259743 2.003502
0.715986 0.269515 2.027046
0.714454 0.270722 2.049329
0.714250 0.265088 2.080623
0.715259 0.265591 2.107946
0.717927 0.266955 2.135621
0.701471 0.275735 2.205882
0.699357 0.272092 2.216667
0.704644 0.270060 2.245098
0.704925 0.267257 2.276772
0.713289 0.264478 2.303922
0.710001 0.274127 2.330980
0.711500 0.256698 2.790196
0.722120 0.252882 2.809804
0.712201 0.257597 2.841177
0.718029 0.259022 2.856863
0.705326 0.257743 2.920588
0.707765 0.253616 2.949020
0.707455 0.254156 2.972549
0.717703 0.255251 3.002941
0.720698 0.259169 3.031373
0.711755 0.295412 1.807811
0.712801 0.288916 1.828011
0.711818 0.286846 1.857843
0.712366 0.284332 1.889599
0.713322 0.283802 1.911359
0.712559 0.283925 1.940993
0.712517 0.285131 1.966947
0.714139 0.282833 1.996201
0.716205 0.281808 2.026172
0.710144 0.280268 2.049510
0.711461 0.280268 2.081863
0.710767 0.282404 2.110131
0.719557 0.285255 2.136765
0.715184 0.284134 2.160784
0.700335 0.287592 2.195425
0.715992 0.292388 2.223529
0.704588 0.290159 2.252288
0.711510 0.289491 2.275000
0.710804 0.290352 2.304374
0.712362 0.289738 2.334938
0.718558 0.288837 2.357843
0.730586 0.025008 1.786275
0.740447 0.015374 1.798656
0.729506 0.026142 1.913072
0.737437 0.026593 1.945752
0.743546 0.027583 1.970196
0.734832 0.027918 1.994118
0.732253 0.054547 1.652941
0.743090 0.048229 1.786275
0.739959 0.042069 1.798252
0.726896 0.041110 1.868628
0.730591 0.036791 1.882531
0.739642 0.044849 1.912368
0.737893 0.038915 1.945400
0.743124 0.041200 1.970232
0.746371 0.033347 2.000981
0.739339 0.039803 2.027696
0.746677 0.042920 2.054466
0.749589 0.046332 2.074510
0.732570 0.046449 2.446079
0.739247 0.047071 2.476470
0.737897 0.051895 2.531373
0.732282 0.067447 1.605882
0.736733 0.059724 1.636275
0.729190 0.065076 1.668628
0.742055 0.064675 1.701961
0.747190 0.066888 1.783824
0.741281 0.062488 1.800286
0.741374 0.067676 1.827619
0.739220 0.069439 1.857610
0.738966 0.069211 1.883333
0.744186 0.065823 1.910893
0.742278 0.064124 1.943137
0.741148 0.056165 2.005882
0.740177 0.058351 2.029412
0.734873 0.070713 2.059477
0.740506 0.070487 2.081793
0.739287 0.075498 2.110240
0.738615 0.077111 2.134804
0.735428 0.075572 2.167034
0.738087 0.076903 2.190196
0.738959 0.078209 2.221765
0.746987 0.079197 2.246569
0.745999 0.079280 2.281373
0.726971 0.078467 2.307843
0.737625 0.080529 2.334314
0.735164 0.077835 2.358824
0.736768 0.070315 2.392157
0.740047 0.075308 2.413726
0.737559 0.067214 2.444706
0.738388 0.064769 2.477871
0.739084 0.071073 2.501961
0.738019 0.073455 2.533614
0.744061 0.071234 2.554031
0.748215 0.072312 2.583007
0.750494 0.080782 2.605883
0.727426 0.106300 2.084314
0.728471 0.084706 2.117647
0.733647 0.110188 2.132680
0.739131 0.086196 2.154902
0.743798 0.100925 2.194118
0.741371 0.101173 2.223039
0.740889 0.086630 2.279739
0.749924 0.087549 2.303922
0.742289 0.091185 2.328105
0.745276 0.090151 2.360000
0.746904 0.088292 2.386275
0.749770 0.088133 2.414706
0.732353 0.107412 2.441176
0.740819 0.096390 2.471569
0.741650 0.101303 2.501307
0.740047 0.097581 2.534314
0.743417 0.097016 2.552941
0.741746 0.094153 2.582888
0.740689 0.097949 2.611928
0.747630 0.103032 2.641830
0.746234 0.104013 2.667059
0.751145 0.108078 2.701961
0.730958 0.124145 2.111373
0.733186 0.125332 2.138824
0.741359 0.123584 2.165809
0.742767 0.126167 2.188796
0.747603 0.124271 2.219328
0.739446 0.121933 2.247982
0.744793 0.123658 2.279412
0.745622 0.126634 2.302745
0.744893 0.130573 2.331373
0.750233 0.125433 2.366667
0.734328 0.113842 2.501961
0.749941 0.118882 2.529412
0.740250 0.125105 2.579412
0.730196 0.117347 2.607843
0.729999 0.119818 2.639216
0.742373 0.128431 2.664706
0.748075 0.126867 2.699020
0.750064 0.122400 2.720098
0.730573 0.132259 3.149020
0.727812 0.159608 1.596079
0.734247 0.160259 1.635294
0.732733 0.156600 1.933333
0.746274 0.159843 1.998039
0.733059 0.153176 2.188235
0.737423 0.149039 2.224510
0.738543 0.141530 2.246569
0.730635 0.143227 2.285621
0.752100 0.146051 2.300000
0.733909 0.164497 2.372549
0.732352 0.162417 2.388627
0.740175 0.156823 2.412549
0.742446 0.156614 2.447059
0.737263 0.151497 2.467451
0.743399 0.159750 2.496078
0.746093 0.157825 2.532026
0.742910 0.161475 2.552941
0.751465 0.157524 2.582353
0.738138 0.153006 2.615196
0.737791 0.150464 2.639706
0.742096 0.155438 2.666667
0.746621 0.154892 2.693791
0.750595 0.159386 2.724510
0.733306 0.151612 3.094118
0.734218 0.158922 3.178432
0.743316 0.140369 3.190196
0.741331 0.165100 3.237255
0.731607 0.185235 1.946405
0.739148 0.183470 1.967686
0.741196 0.183624 1.991317
0.748876 0.187234 2.024020
0.729497 0.178391 2.362745
0.739224 0.174213 2.386520
0.745388 0.179541 2.418137
0.748841 0.184154 2.439216
0.752400 0.191788 2.458824
0.727600 0.171200 2.517647
0.736384 0.174188 2.552451
0.737562 0.180194 2.580392
0.742855 0.183113 2.615686
0.739809 0.173879 2.644608
0.729876 0.177794 2.673530
0.742498 0.181577 2.700000
0.735794 0.180529 2.735294
0.748704 0.185104 2.762745
0.743154 0.185108 2.776471
0.743757 0.190133 2.796079
0.750147 0.193922 2.837909
0.732179 0.185400 3.169608
0.740106 0.189031 3.203922
0.742657 0.189961 3.219608
0.740776 0.178696 3.249020
0.732070 0.203360 1.918431
0.735629 0.205765 1.944742
0.736610 0.209144 1.970537
0.744077 0.209326 1.994608
0.740644 0.209683 2.020392
0.739962 0.203633 2.048628
0.734713 0.214014 2.082843
0.739878 0.215454 2.101961
0.745226 0.219252 2.133824
0.749667 0.223167 2.166667
0.736159 0.213724 2.198824
0.739472 0.214134 2.222876
0.737544 0.214745 2.248693
0.740286 0.213304 2.281373
0.736676 0.213539 2.304575
0.743067 0.217809 2.329412
0.733045 0.206597 2.363922
0.734798 0.204248 2.393464
0.744614 0.208393 2.404575
0.731000 0.197294 2.529412
0.736753 0.208063 2.558170
0.738877 0.200479 2.583530
0.744220 0.206621 2.609804
0.750505 0.205524 2.651961
0.746438 0.202755 2.667843
0.741615 0.219817 2.697059
0.737631 0.203810 2.723529
0.740996 0.208764 2.752941
0.740801 0.212048 2.782876
0.742356 0.209994 2.809314
0.748389 0.215855 2.840196
0.741991 0.217165 2.857517
0.743378 0.213475 2.892549
0.736943 0.211508 2.914566
0.732333 0.215881 2.947059
0.745618 0.221313 2.970588
0.736484 0.219962 3.002941
0.727265 0.202529 3.068628
0.735629 0.207963 3.103922
0.739698 0.214698 3.134314
0.751333 0.199267 3.266667
0.734577 0.239443 1.839543
0.735740 0.236988 1.856373
0.744000 0.237677 1.884379
0.744910 0.235071 1.912900
0.745609 0.232645 1.941711
0.747421 0.227562 1.961765
0.736570 0.234260 1.998869
0.742153 0.237701 2.023965
0.739495 0.241573 2.050784
0.735142 0.238952 2.082898
0.739970 0.241224 2.104412
0.737936 0.248643 2.134314
0.738318 0.248265 2.158823
0.743715 0.225965 2.193838
0.736890 0.226396 2.219608
0.742688 0.228117 2.243791
0.739782 0.227392 2.273856
0.736000 0.225400 2.300000
0.744105 0.227039 2.332680
0.753406 0.230012 2.347059
0.748229 0.223747 2.405882
0.730435 0.233118 2.590196
0.729226 0.232633 2.613726
0.739009 0.233406 2.642484
0.740158 0.239623 2.668235
0.737702 0.236235 2.696079
0.746773 0.232083 2.730392
0.743901 0.238788 2.757255
0.746151 0.236417 2.776751
0.741219 0.232863 2.797059
0.742449 0.235187 2.839216
0.739546 0.236622 2.873856
0.736174 0.237376 2.888889
0.737715 0.231090 2.925098
0.733818 0.226924 2.947059
0.747412 0.228976 2.973856
0.737651 0.242373 3.010784
0.741632 0.233603 3.024020
0.747394 0.229265 3.056863
0.744506 0.230735 3.076470
0.752298 0.246604 3.121569
0.741687 0.239092 3.146079
0.750965 0.247153 3.168628
0.737525 0.259003 1.855742
0.744517 0.267827 1.881699
0.750743 0.262671 1.910294
0.733740 0.260698 2.025858
0.739993 0.267938 2.052981
0.738627 0.265074 2.078662
0.736030 0.268244 2.108669
0.738428 0.268777 2.138235
0.742959 0.263009 2.167647
0.747454 0.269839 2.191961
0.752667 0.266768 2.213726
0.728106 0.269235 2.341177
0.748124 0.254978 2.801961
0.745544 0.253234 2.829412
0.744962 0.258816 2.859804
0.733683 0.260736 2.897059
0.740341 0.265241 2.914706
0.744118 0.267647 2.941177
0.749560 0.259306 2.980392
0.741251 0.264842 3.000980
0.747165 0.261204 3.037255
0.743419 0.268240 3.065687
0.739390 0.265494 3.087255
0.735629 0.260729 3.103922
0.744459 0.260718 3.141176
0.750500 0.272333 3.166667
0.737429 0.300647 1.809719
0.740488 0.298071 1.829031
0.741712 0.294751 1.857353
0.740960 0.293083 1.882504
0.739514 0.288359 1.917594
0.741323 0.291084 1.939342
0.741459 0.285981 1.967843
0.740994 0.285457 1.997285
0.738482 0.286233 2.030065
0.739653 0.284090 2.051751
0.749324 0.284332 2.073529
0.729041 0.280480 2.100980
0.737512 0.283434 2.133088
0.748435 0.283583 2.164706
0.748588 0.285832 2.195294
0.746960 0.290008 2.218137
0.727857 0.291602 2.296078
0.736035 0.288951 2.336601
0.730100 0.287792 2.365360
0.733374 0.287147 2.386274
0.742519 0.290240 2.418628
0.734392 0.308204 2.407843
0.774392 0.021493 1.784314
0.767990 0.015168 1.798992
0.773315 0.034780 1.783660
0.767671 0.041613 1.798370
0.757252 0.044918 1.952941
0.763232 0.047959 1.977941
0.765757 0.040378 1.995386
0.769130 0.039316 2.023670
0.767338 0.038425 2.049020
0.770193 0.042228 2.079035
0.768102 0.048221 2.112092
0.774380 0.052125 2.127451
0.759876 0.052665 2.507843
0.773949 0.053818 2.562745
0.756424 0.071329 1.658823
0.765816 0.062827 1.698039
0.763472 0.065855 1.721569
0.770464 0.065239 1.745588
0.764123 0.068323 1.778824
0.762671 0.065178 1.800946
0.770648 0.073298 1.825418
0.766914 0.076087 1.855958
0.767168 0.075369 1.884314
0.765487 0.074998 1.910784
0.767360 0.075101 1.940784
0.767192 0.066294 1.975599
0.766321 0.065322 2.000000
0.775027 0.060475 2.015686
0.763761 0.058588 2.117647
0.763677 0.072766 2.139804
0.769273 0.073096 2.163617
0.764679 0.079475 2.190196
0.777018 0.081908 2.213726
0.762288 0.082023 2.257516
0.761402 0.079851 2.281373
0.766553 0.080569 2.301961
0.771684 0.081598 2.331373
0.779059 0.082627 2.360785
0.759171 0.076163 2.456863
0.770745 0.082047 2.486274
0.776741 0.080439 2.513726
0.760848 0.073213 2.524314
0.759635 0.069543 2.559150
0.767271 0.068190 2.582549
0.764357 0.070252 2.615126
0.775748 0.077089 2.643137
0.772374 0.074687 2.667059
0.775200 0.077788 2.682353
0.757145 0.083888 2.150980
0.764156 0.090222 2.218519
0.765919 0.096892 2.246536
0.773592 0.093147 2.280112
0.764693 0.093646 2.304635
0.771871 0.091472 2.333333
0.766841 0.098379 2.353726
0.772155 0.096742 2.388726
0.768982 0.096798 2.412500
0.767490 0.091188 2.445378
0.759600 0.084400 2.482353
0.767788 0.092262 2.501961
0.762509 0.095838 2.528235
0.766867 0.099894 2.561373
0.776320 0.094535 2.585839
0.764444 0.097133 2.615406
0.765591 0.095749 2.638656
0.770258 0.098998 2.665266
0.769044 0.098313 2.697386
0.768461 0.104024 2.723137
0.772031 0.108894 2.792157
0.758784 0.126487 2.167974
0.762798 0.124639 2.199346
0.766846 0.125608 2.220098
0.765335 0.124779 2.250654
0.771619 0.125873 2.276169
0.769680 0.122379 2.304037
0.771567 0.124654 2.329902
0.768491 0.123365 2.363137
0.776355 0.120718 2.385882
0.778196 0.130595 2.418628
0.774244 0.131570 2.445490
0.755451 0.115451 2.509804
0.759118 0.116393 2.530392
0.767512 0.117163 2.547059
0.773981 0.117607 2.584314
0.767282 0.125271 2.609804
0.770842 0.116156 2.639869
0.777893 0.118742 2.668628
0.765414 0.126490 2.702745
0.760674 0.134715 2.721569
0.769724 0.123010 2.749020
0.773737 0.128267 2.788235
0.778638 0.124816 2.810980
0.755657 0.166078 1.660784
0.760424 0.164871 1.682353
0.759914 0.167302 2.015686
0.754867 0.142933 2.233333
0.763333 0.147928 2.250000
0.772516 0.147709 2.278788
0.769078 0.145577 2.305602
0.774416 0.151069 2.335294
0.769990 0.146445 2.361961
0.772791 0.149404 2.386667
0.774287 0.151480 2.412157
0.771355 0.158667 2.441177
0.766225 0.146361 2.459804
0.766796 0.157871 2.505883
0.764578 0.157987 2.531765
0.765270 0.156973 2.554684
0.774449 0.162935 2.578039
0.765991 0.156588 2.609804
0.769100 0.160856 2.636928
0.777141 0.158904 2.670588
0.764029 0.150828 2.693464
0.763697 0.155286 2.732353
0.764206 0.163856 2.753922
0.756502 0.140214 3.260784
0.768784 0.149118 3.313725
0.781592 0.172157 1.721569
0.760388 0.186882 1.995798
0.771585 0.185982 2.025668
0.768997 0.183442 2.049608
0.765488 0.191901 2.074510
0.777192 0.189567 2.106275
0.780953 0.169565 2.388235
0.759409 0.184784 2.441830
0.763753 0.183536 2.473333
0.774757 0.174383 2.491177
0.778337 0.182551 2.535294
0.759502 0.168490 2.592157
0.770741 0.167780 2.621569
0.764902 0.170422 2.642157
0.758181 0.184852 2.679085
0.766491 0.182033 2.700784
0.771789 0.181576 2.730392
0.772186 0.180951 2.762745
0.768195 0.180916 2.783333
0.770463 0.176375 2.806863
0.772800 0.178994 2.841177
0.768780 0.193624 2.861438
0.757318 0.170478 3.278431
0.754441 0.182794 3.323529
0.762248 0.216759 1.976471
0.769888 0.213311 2.001471
0.768566 0.212744 2.023982
0.775860 0.213425 2.050109
0.760346 0.203222 2.087909
0.758465 0.210077 2.111275
0.771790 0.205567 2.133987
0.765195 0.217910 2.157516
0.768784 0.215820 2.189020
0.764406 0.216585 2.215686
0.765010 0.219628 2.250980
0.763480 0.219109 2.274510
0.778726 0.223480 2.303922
0.756843 0.223020 2.372549
0.770400 0.220800 2.400000
0.761129 0.217237 2.413726
0.764305 0.210458 2.447059
0.765880 0.206298 2.470588
0.770040 0.207438 2.503642
0.778289 0.209496 2.530196
0.758400 0.201450 2.633333
0.758951 0.209405 2.667647
0.768044 0.202012 2.730065
0.762930 0.205997 2.752614
0.771640 0.210528 2.780214
0.767134 0.208557 2.805447
0.769835 0.215711 2.832026
0.766841 0.210374 2.872059
0.771575 0.203128 2.885490
0.763618 0.213048 2.918301
0.765470 0.215839 2.948627
0.768959 0.215254 2.968954
0.774969 0.221420 2.992157
0.777047 0.220718 3.023530
0.761680 0.240578 1.815686
0.758933 0.243653 1.864706
0.758796 0.240204 1.891503
0.762350 0.243570 1.916667
0.766027 0.239401 1.946471
0.772335 0.236169 1.973229
0.771968 0.233187 1.995980
0.767482 0.233411 2.027348
0.769564 0.236150 2.051358
0.773909 0.244509 2.076035
0.781837 0.249433 2.096078
0.761594 0.226203 2.203268
0.770388 0.225798 2.213726
0.779929 0.228600 2.241177
0.764069 0.228533 2.280784
0.769288 0.230009 2.304706
0.772598 0.233597 2.331373
0.770694 0.235686 2.356863
0.772539 0.234441 2.386275
0.771480 0.229117 2.416013
0.780004 0.232645 2.449020
0.780690 0.233710 2.486274
0.777553 0.224294 2.492157
0.762412 0.237468 2.729412
0.766949 0.234891 2.756863
0.769154 0.237224 2.776751
0.769565 0.234718 2.807647
0.764969 0.231516 2.834967
0.767332 0.242634 2.863235
0.772983 0.241931 2.891503
0.769179 0.239626 2.922353
0.768862 0.240964 2.945882
0.759500 0.247210 2.978432
0.771436 0.235627 3.001716
0.769050 0.236628 3.033824
0.768246 0.238733 3.060784
0.772932 0.245968 3.087582
0.760467 0.241544 3.116667
0.758698 0.249194 3.174510
0.768127 0.232073 3.268628
0.759601 0.261717 1.893137
0.763119 0.263223 1.916387
0.770756 0.262124 1.942335
0.770840 0.261971 1.968271
0.773962 0.261069 1.995722
0.773730 0.261566 2.023249
0.773106 0.257970 2.047451
0.765179 0.263025 2.079529
0.772433 0.268840 2.105294
0.767054 0.263103 2.134174
0.762895 0.264686 2.166079
0.767656 0.268792 2.196446
0.770052 0.264765 2.220262
0.774843 0.271154 2.247059
0.781082 0.262252 2.270588
0.772446 0.254369 2.866176
0.769620 0.256929 2.893333
0.759352 0.262853 2.920588
0.763314 0.268541 2.950981
0.762980 0.253333 2.980392
0.765007 0.264533 3.005883
0.770476 0.266404 3.027451
0.755176 0.277412 3.082353
0.766565 0.268988 3.109804
0.775499 0.263200 3.133334
0.778168 0.258326 3.189216
0.774118 0.251588 3.225491
0.756902 0.302401 1.810784
0.763989 0.303912 1.829527
0.763150 0.300932 1.857721
0.767426 0.298744 1.884314
0.768503 0.298129 1.914418
0.767364 0.295720 1.940941
0.771204 0.294575 1.967386
0.773266 0.290331 1.995033
0.766264 0.288793 2.022353
0.767722 0.290048 2.053431
0.764553 0.288292 2.079789
0.770625 0.287864 2.112745
0.777940 0.290665 2.129412
0.759020 0.281922 2.168628
0.761518 0.284107 2.196732
0.768467 0.288509 2.219363
0.767812 0.289675 2.249020
0.780408 0.297190 2.268628
0.760878 0.297412 2.478431
0.781922 0.280137 3.078432
0.778247 0.281294 3.125490
0.773694 0.279914 3.145098
0.774112 0.282357 3.172549
0.781627 0.307632 1.858824
0.781671 0.307420 1.874510
0.782216 0.309071 1.907843
0.795263 0.021412 1.784314
0.795869 0.013604 1.796874
0.789926 0.034217 1.784314
0.795860 0.039381 1.797794
0.799838 0.051272 1.827105
0.807882 0.055588 1.852941
0.784027 0.045314 2.029412
0.785966 0.048003 2.057516
0.794702 0.045152 2.080046
0.793482 0.041660 2.108987
0.797743 0.045213 2.134581
0.795704 0.045047 2.171078
0.805992 0.043804 2.190196
0.786882 0.072635 1.729412
0.795853 0.070299 1.780392
0.795863 0.069116 1.803268
0.788834 0.063492 1.828342
0.797860 0.068367 1.857108
0.795454 0.081470 1.885882
0.788899 0.079580 1.912941
0.790590 0.079214 1.941569
0.797721 0.080530 1.964146
0.793459 0.080280 1.998693
0.789454 0.079511 2.018039
0.794678 0.068563 2.056536
0.803098 0.065348 2.082598
0.799971 0.062451 2.105229
0.792969 0.059247 2.174020
0.788593 0.073234 2.194363
0.802292 0.070476 2.222409
0.800651 0.080965 2.249020
0.809200 0.081600 2.266667
0.787847 0.082559 2.358824
0.790300 0.077729 2.591177
0.782396 0.073514 2.625490
0.790484 0.072275 2.643791
0.791816 0.073944 2.668628
0.795628 0.072645 2.690196
0.805848 0.076058 2.716340
0.801765 0.077412 2.764706
0.805176 0.080518 2.776471
0.802446 0.103010 1.584314
0.799278 0.085029 1.889543
0.802020 0.085360 1.911111
0.807706 0.083892 1.950980
0.789794 0.094367 2.220098
0.790411 0.097755 2.250980
0.800492 0.092221 2.273421
0.798023 0.101111 2.305462
0.793708 0.094778 2.334510
0.797917 0.098749 2.361319
0.793632 0.098233 2.387395
0.796560 0.100100 2.415468
0.796378 0.097914 2.442246
0.796377 0.097259 2.466667
0.798420 0.101640 2.501961
0.797182 0.099925 2.529412
0.793876 0.100383 2.557843
0.796332 0.097876 2.586928
0.794182 0.097752 2.613333
0.797948 0.096026 2.640642
0.794916 0.094694 2.670767
0.796330 0.098469 2.695163
0.798052 0.102005 2.723708
0.798331 0.096847 2.750980
0.799171 0.105591 2.778824
0.807010 0.113461 1.598039
0.803626 0.128343 1.974510
0.790026 0.119392 2.219216
0.786967 0.126552 2.246405
0.792002 0.124365 2.280036
0.797859 0.126054 2.308628
0.799173 0.120063 2.333769
0.799084 0.118891 2.358333
0.796083 0.122787 2.386710
0.795825 0.125087 2.417157
0.792297 0.127193 2.446251
0.795176 0.128376 2.468806
0.795834 0.134302 2.502614
0.804957 0.136904 2.535294
0.805644 0.128609 2.554902
0.803112 0.116206 2.582353
0.802062 0.118517 2.608964
0.790588 0.121224 2.635294
0.801418 0.130715 2.667843
0.809645 0.138100 2.707843
0.792778 0.121833 2.727451
0.798030 0.124683 2.753221
0.789988 0.128744 2.778431
0.797358 0.125785 2.812121
0.802934 0.128612 2.837255
0.808492 0.114275 2.856863
0.804096 0.115490 2.887255
0.784559 0.167373 2.092157
0.798743 0.160908 2.110294
0.806132 0.162083 2.139706
0.788552 0.149670 2.279085
0.789087 0.150137 2.303922
0.792721 0.154347 2.333856
0.798968 0.156635 2.367320
0.794358 0.155641 2.386275
0.790882 0.154927 2.420728
0.799940 0.153200 2.446324
0.798271 0.157280 2.470588
0.800510 0.152268 2.502941
0.798903 0.149481 2.528186
0.800791 0.159555 2.552941
0.794817 0.162440 2.578432
0.797936 0.161146 2.609804
0.794162 0.156863 2.636275
0.799421 0.156698 2.655882
0.794905 0.155378 2.702288
0.798028 0.155380 2.725980
0.798031 0.157765 2.751852
0.790445 0.142702 2.798039
0.797206 0.155863 2.834174
0.798552 0.157247 2.858824
0.806200 0.165300 2.900000
0.802941 0.176647 1.784314
0.785890 0.194447 2.025490
0.783665 0.195402 2.056863
0.794523 0.184825 2.083726
0.796645 0.182974 2.106127
0.797656 0.183840 2.131373
0.802865 0.190435 2.164052
0.783518 0.167725 2.396078
0.801108 0.171578 2.416667
0.806373 0.169118 2.450981
0.805886 0.174803 2.469020
0.802585 0.176635 2.551961
0.799628 0.180571 2.579412
0.808431 0.172118 2.607843
0.802918 0.171676 2.641177
0.785933 0.177560 2.703922
0.793636 0.176957 2.722549
0.783746 0.184255 2.750000
0.789383 0.183021 2.781569
0.787333 0.184201 2.805229
0.793247 0.188541 2.830980
0.795380 0.191203 2.867974
0.804724 0.185559 2.884314
0.792808 0.190157 2.925490
0.795465 0.193729 2.935294
0.784093 0.222212 2.001961
0.784353 0.211524 2.029412
0.790431 0.215048 2.058007
0.796344 0.215163 2.081527
0.803224 0.212215 2.101121
0.785788 0.198582 2.135294
0.787213 0.206082 2.166107
0.791871 0.209962 2.193557
0.800852 0.208279 2.221569
0.801923 0.211344 2.248366
0.789255 0.220627 2.274510
0.800945 0.221502 2.299346
0.783690 0.223247 2.325490
0.796518 0.201682 2.552941
0.799204 0.205607 2.579272
0.805424 0.204635 2.623529
0.790963 0.216870 2.807353
0.787115 0.212456 2.837037
0.801348 0.205439 2.863235
0.798909 0.209125 2.894608
0.791460 0.204780 2.915196
0.789216 0.204901 2.941177
0.788870 0.220942 2.965686
0.799877 0.219231 3.003268
0.787845 0.236531 1.778432
0.802120 0.244123 1.803922
0.809514 0.246057 1.829412
0.793882 0.247616 1.890196
0.804696 0.245029 1.906863
0.786670 0.245631 1.939216
0.787915 0.238701 1.975572
0.797969 0.235169 1.996340
0.795747 0.232085 2.025697
0.790445 0.232122 2.055294
0.795450 0.229635 2.078547
0.796806 0.236140 2.106100
0.800659 0.242753 2.129412
0.795028 0.226026 2.249020
0.798423 0.228856 2.282843
0.796553 0.230702 2.303268
0.794124 0.233758 2.332941
0.797485 0.231744 2.364706
0.799568 0.233844 2.392157
0.795556 0.241566 2.415686
0.799605 0.241839 2.449020
0.796469 0.237460 2.473529
0.798744 0.235280 2.497647
0.798320 0.233755 2.525210
0.800986 0.234944 2.553595
0.788940 0.233302 2.817647
0.795600 0.233369 2.834641
0.789526 0.227218 2.864053
0.790888 0.233322 2.894902
0.802078 0.231099 2.913072
0.807754 0.237304 2.948039
0.791668 0.232203 2.971429
0.795442 0.243301 3.003922
0.794848 0.237223 3.030532
0.797745 0.239069 3.058497
0.793676 0.233159 3.088235
0.802037 0.238276 3.114706
0.804311 0.243986 3.148039
0.804143 0.251096 3.178432
0.801682 0.244690 3.219608
0.807059 0.247059 3.294118
0.795968 0.259575 1.915686
0.794542 0.266543 1.942745
0.791255 0.268060 1.966947
0.795802 0.265109 1.995752
0.793641 0.266238 2.022409
0.795384 0.262203 2.057792
0.800339 0.264517 2.081863
0.795442 0.261528 2.107451
0.796926 0.265683 2.138081
0.799320 0.272742 2.164706
0.806735 0.272319 2.184314
0.786212 0.274344 2.230392
0.787984 0.265671 2.251373
0.793105 0.268156 2.275350
0.798085 0.272297 2.307563
0.802923 0.270347 2.320588
0.809076 0.273624 2.358824
0.784741 0.252957 2.874510
0.798204 0.260390 2.945490
0.794272 0.269728 2.980392
0.790110 0.253318 3.015686
0.793707 0.269881 3.032353
0.787368 0.267524 3.057843
0.802447 0.252110 3.074510
0.799020 0.264765 3.151961
0.796923 0.257132 3.194118
0.791633 0.263525 3.226797
0.797140 0.264631 3.253595
0.807215 0.270712 3.281373
0.790575 0.258012 3.307843
0.799773 0.304586 1.868628
0.799483 0.303673 1.874510
0.793515 0.302185 1.916148
0.795323 0.301470 1.945882
0.791955 0.298076 1.970262
0.796467 0.296818 1.993382
0.796068 0.288813 2.025654
0.795931 0.295674 2.053298
0.797378 0.290110 2.079035
0.796363 0.292907 2.112418
0.791873 0.290219 2.135730
0.798770 0.292190 2.164360
0.802158 0.289121 2.190196
0.786475 0.285373 2.247059
0.797068 0.287086 2.278431
0.796443 0.287776 2.306863
0.795626 0.287631 2.319608
0.798535 0.281119 3.089216
0.795052 0.286669 3.167647
0.803812 0.291706 3.241177
0.800894 0.292129 3.282353
0.793637 0.309253 1.862990
0.794988 0.310239 1.885154
0.796991 0.310747 1.910644
0.800170 0.310582 1.942415
0.805843 0.314507 1.957516
0.825129 0.015381 1.799282
0.835863 0.046239 1.778432
0.825016 0.041173 1.800499
0.821665 0.051699 1.829327
0.826656 0.053883 1.858007
0.828291 0.054304 1.872549
0.815041 0.051353 2.139216
0.822975 0.050556 2.166667
0.821323 0.049343 2.193137
0.824407 0.048953 2.225163
0.833584 0.049565 2.252941
0.833297 0.080382 1.786275
0.834890 0.065129 1.800834
0.826464 0.065647 1.827451
0.821724 0.072720 1.857983
0.820830 0.063032 1.888948
0.828359 0.070268 1.910709
0.831183 0.074377 1.931863
0.813178 0.082915 1.998039
0.813982 0.083018 2.024837
0.814080 0.066006 2.111765
0.822053 0.073070 2.133824
0.823333 0.056333 2.166667
0.835401 0.071456 2.186928
0.832318 0.060020 2.222549
0.821296 0.062233 2.252451
0.823843 0.070923 2.275817
0.833299 0.079322 2.310458
0.837378 0.069588 2.319608
0.823802 0.080602 2.732353
0.822314 0.058867 2.759477
0.829700 0.075063 2.781046
0.830885 0.066342 2.803922
0.815184 0.103490 1.592157
0.814561 0.094978 1.609804
0.824742 0.099916 1.632549
0.830329 0.100277 1.652941
0.836835 0.107545 1.680392
0.836876 0.091515 1.798775
0.827780 0.097063 1.831373
0.819041 0.086110 1.913726
0.818244 0.088102 1.947059
0.833703 0.089147 1.963530
0.825903 0.087426 1.986928
0.832878 0.086925 2.021569
0.822127 0.085680 2.056209
0.824085 0.086943 2.082353
0.827416 0.086321 2.105392
0.831067 0.087145 2.125490
0.832279 0.085448 2.163235
0.813176 0.085835 2.258823
0.812912 0.095851 2.281863
0.817629 0.091867 2.296732
0.823174 0.099371 2.331128
0.824678 0.102942 2.357734
0.824606 0.098874 2.386695
0.823548 0.101086 2.415126
0.820245 0.098592 2.444445
0.822984 0.104241 2.472059
0.821011 0.103011 2.500000
0.824906 0.100252 2.531961
0.834149 0.109355 2.543137
0.830851 0.102090 2.584314
0.816621 0.097006 2.621569
0.814759 0.098873 2.636765
0.820136 0.102688 2.667157
0.820879 0.094163 2.703268
0.822129 0.097096 2.725735
0.817966 0.097231 2.755462
0.821081 0.098893 2.777647
0.825502 0.097345 2.807843
0.827630 0.102014 2.834314
0.821325 0.115131 1.621569
0.820000 0.113333 1.666667
0.834749 0.135365 2.050980
0.820781 0.120643 2.308824
0.825008 0.125580 2.338095
0.819318 0.124600 2.362010
0.824286 0.121887 2.386096
0.824729 0.115795 2.419608
0.819873 0.116216 2.441569
0.824486 0.117437 2.467059
0.824188 0.122431 2.502614
0.821561 0.122128 2.533595
0.825016 0.124108 2.555991
0.821238 0.124353 2.584429
0.827602 0.123634 2.613628
0.828042 0.119048 2.645490
0.831096 0.124937 2.669804
0.827096 0.117201 2.694118
0.820238 0.127061 2.725792
0.828610 0.126300 2.751852
0.822145 0.133146 2.773726
0.817753 0.125327 2.810196
0.818899 0.125088 2.834804
0.823823 0.131582 2.860504
0.826344 0.127000 2.886765
0.825825 0.129151 2.918137
0.827374 0.130550 2.944445
0.834735 0.133676 2.970588
0.833892 0.147275 1.990196
0.817622 0.161111 2.138562
0.825894 0.161286 2.160131
0.827749 0.163242 2.198529
0.833088 0.164396 2.221569
0.813069 0.149961 2.343137
0.821494 0.149632 2.365686
0.827778 0.154022 2.390476
0.827897 0.158571 2.415686
0.821420 0.160800 2.445588
0.822069 0.165076 2.469935
0.816277 0.158568 2.503922
0.816574 0.159050 2.524619
0.817180 0.157835 2.553726
0.824001 0.155380 2.584069
0.822965 0.155673 2.609150
0.831667 0.155164 2.644880
0.828628 0.157087 2.667320
0.826167 0.155328 2.696471
0.830231 0.152173 2.717647
0.820427 0.149746 2.756209
0.818598 0.156008 2.779657
0.827428 0.159090 2.810588
0.831461 0.152239 2.838971
0.824798 0.155206 2.863922
0.827379 0.145129 2.894398
0.827767 0.154106 2.918824
0.819827 0.144502 2.949020
0.829888 0.148725 2.974510
0.810424 0.175906 1.570588
0.829769 0.181569 1.815686
0.815561 0.187075 2.101961
0.815794 0.184867 2.141177
0.822917 0.184767 2.166063
0.827696 0.181250 2.194314
0.831834 0.180022 2.222222
0.835176 0.193078 2.245098
0.810347 0.170476 2.335294
0.827012 0.171106 2.376471
0.819041 0.177845 2.419608
0.820012 0.176534 2.440523
0.831285 0.176089 2.480000
0.824059 0.175198 2.499412
0.828777 0.173945 2.528235
0.821107 0.174042 2.555338
0.826856 0.176514 2.587582
0.825968 0.179118 2.611765
0.826439 0.178114 2.634069
0.823477 0.177524 2.673726
0.835461 0.175310 2.739216
0.819890 0.179702 2.807843
0.825076 0.183193 2.840196
0.813020 0.174627 2.862745
0.813177 0.185537 2.899020
0.813014 0.184224 2.924510
0.823324 0.188863 2.950980
0.829341 0.193216 2.972549
0.822212 0.195918 1.605882
0.811561 0.202369 2.086274
0.819329 0.213506 2.114006
0.821654 0.209043 2.136135
0.827939 0.209021 2.160294
0.820227 0.200970 2.224837
0.818221 0.209511 2.244771
0.822070 0.214351 2.277206
0.827461 0.213971 2.309150
0.828402 0.220240 2.334641
0.830859 0.222971 2.347059
0.824435 0.223024 2.505882
0.830933 0.222933 2.533333
0.811263 0.206704 2.583660
0.817201 0.203265 2.612549
0.827654 0.212129 2.640523
0.835280 0.213490 2.668628
0.812931 0.221186 2.872549
0.817850 0.214303 2.915686
0.822551 0.201200 2.958824
0.829136 0.206150 2.980719
0.827853 0.211843 3.004902
0.820041 0.214124 3.037255
0.819239 0.213980 3.056863
0.834955 0.217275 3.103922
0.818272 0.244289 1.836765
0.825565 0.246242 1.860784
0.834600 0.234974 1.950000
0.832841 0.241178 1.960784
0.812652 0.240303 2.004357
0.823937 0.241418 2.023338
0.830928 0.241586 2.049216
0.825202 0.231952 2.080392
0.822484 0.227564 2.107190
0.831881 0.228102 2.138562
0.834706 0.226471 2.156863
0.814800 0.225953 2.282353
0.834353 0.224812 2.317647
0.822812 0.229753 2.334902
0.826269 0.230761 2.360784
0.825320 0.231975 2.385294
0.829207 0.238216 2.412255
0.825266 0.236011 2.443137
0.819620 0.241087 2.470868
0.822130 0.239763 2.506536
0.824600 0.234333 2.533333
0.814511 0.237978 2.553333
0.817253 0.240516 2.586275
0.822650 0.242462 2.615126
0.829351 0.237583 2.649673
0.811594 0.239724 2.888236
0.818865 0.233959 2.924510
0.822633 0.240302 2.948530
0.822851 0.237652 2.970588
0.824686 0.228745 3.009804
0.812407 0.249851 3.065686
0.813905 0.247980 3.086928
0.829325 0.257526 1.800981
0.830401 0.254751 1.828431
0.815418 0.251467 1.849020
0.826867 0.256804 1.881373
0.826793 0.262410 1.973203
0.819884 0.266955 2.003431
0.818805 0.262406 2.025752
0.832486 0.268421 2.052157
0.828047 0.271422 2.071895
0.814937 0.270227 2.111275
0.818492 0.273539 2.139869
0.822131 0.267913 2.162092
0.826860 0.272195 2.195207
0.826837 0.269357 2.207843
0.831813 0.277266 2.245098
0.835859 0.251765 2.517647
0.820267 0.253318 3.015686
0.817752 0.271570 3.034314
0.837200 0.254533 3.066667
0.827571 0.264576 3.076470
0.837065 0.264500 3.111765
0.814715 0.305391 1.942157
0.825672 0.300014 1.970588
0.825694 0.300634 2.000981
0.828382 0.299959 2.024096
0.823050 0.293495 2.053569
0.826916 0.297807 2.082584
0.822330 0.295490 2.110676
0.824691 0.294209 2.137668
0.826142 0.295292 2.164967
0.822217 0.295857 2.187500
0.825182 0.293606 2.219155
0.831898 0.299264 2.250140
0.834082 0.292776 2.269608
0.810741 0.288725 2.309804
0.821323 0.291400 2.350000
0.820654 0.291042 2.385621
0.818902 0.281208 3.090196
0.824094 0.284063 3.121569
0.815733 0.311110 1.866667
0.823031 0.313035 1.887395
0.822250 0.314054 1.912745
0.823609 0.314486 1.942365
0.827255 0.315652 1.968758
0.829464 0.311275 1.993015
0.831011 0.308830 2.021569
0.831008 0.308424 2.049346
0.831385 0.309544 2.137255
0.831282 0.311054 2.167647
0.826447 0.309506 2.195098
0.834184 0.311220 2.223039
0.827059 0.308471 2.235294
0.852059 0.014975 1.797958
0.847969 0.052165 1.784314
0.851924 0.041426 1.799424
0.843700 0.052636 2.224183
0.851585 0.053010 2.255882
0.845275 0.053167 2.278431
0.855516 0.052968 2.302941
0.860575 0.053351 2.319608
0.857266 0.067926 1.783516
0.850877 0.070424 1.798532
0.843658 0.072775 1.826745
0.850165 0.066733 1.856495
0.855180 0.064336 1.884594
0.848487 0.062843 1.911373
0.851763 0.063038 1.942702
0.854371 0.069339 1.966912
0.861033 0.074747 1.993137
0.839361 0.073933 2.174510
0.843082 0.075514 2.199346
0.852368 0.072014 2.227451
0.852545 0.066019 2.245883
0.850375 0.065724 2.282353
0.842997 0.065910 2.312745
0.849838 0.072352 2.333660
0.858451 0.067550 2.356209
0.839086 0.080575 2.778431
0.853682 0.061596 2.864706
0.865377 0.064102 2.913726
0.841167 0.111067 1.633333
0.848491 0.103679 1.658824
0.851888 0.104504 1.690980
0.858578 0.105809 1.720588
0.856185 0.088656 1.784968
0.853288 0.093916 1.801070
0.849955 0.098866 1.825387
0.856279 0.097298 1.858101
0.860711 0.095760 1.877647
0.846229 0.087922 1.943137
0.846769 0.085073 1.978431
0.851153 0.092573 1.998039
0.858050 0.092333 2.024706
0.851986 0.092051 2.045588
0.847890 0.088514 2.082598
0.847494 0.090204 2.109967
0.848871 0.091465 2.135621
0.856068 0.093962 2.165098
0.859260 0.092358 2.188628
0.858773 0.094312 2.219118
0.864736 0.085463 2.249020
0.841261 0.086624 2.341176
0.841645 0.089344 2.350980
0.852398 0.105233 2.391765
0.857445 0.099129 2.417647
0.848575 0.105118 2.436415
0.855803 0.103439 2.462745
0.853991 0.107164 2.501961
0.855913 0.103400 2.559608
0.855043 0.109291 2.571569
0.850743 0.107320 2.617647
0.852459 0.109528 2.639216
0.853482 0.109012 2.658824
0.856603 0.110620 2.698040
0.847627 0.109020 2.725490
0.854303 0.104162 2.778431
0.849360 0.095645 2.812418
0.862041 0.112586 1.680392
0.865694 0.121953 1.717647
0.861871 0.118126 1.750000
0.853976 0.138204 2.062745
0.854988 0.132671 2.105882
0.853436 0.126270 2.338235
0.844768 0.117303 2.369608
0.850402 0.126209 2.392157
0.845482 0.118960 2.413726
0.861442 0.128648 2.445882
0.856050 0.115000 2.478432
0.863304 0.113525 2.495098
0.845204 0.117842 2.534314
0.850130 0.117429 2.552941
0.850540 0.116162 2.581373
0.856647 0.122007 2.614379
0.847708 0.120871 2.636135
0.851838 0.123825 2.670343
0.851387 0.126308 2.687451
0.847806 0.130178 2.730937
0.851540 0.127984 2.754450
0.850451 0.127287 2.774755
0.855759 0.124415 2.811520
0.849507 0.122171 2.841177
0.838765 0.128382 2.852942
0.850485 0.123969 2.883007
0.841786 0.129576 2.922876
0.853663 0.131432 2.953922
0.851536 0.128533 2.975294
0.856485 0.127485 3.000000
0.857324 0.124206 3.029412
0.858026 0.146314 2.090196
0.838947 0.165147 2.201961
0.854118 0.163394 2.228105
0.855373 0.166573 2.250981
0.862462 0.160188 2.321569
0.866065 0.166641 2.347059
0.842221 0.154540 2.396079
0.846071 0.154012 2.417367
0.858540 0.152817 2.445098
0.849980 0.159350 2.467787
0.858102 0.165841 2.512745
0.865118 0.144186 2.621569
0.852504 0.155478 2.635294
0.848707 0.147901 2.664706
0.848384 0.155230 2.697888
0.844290 0.155268 2.728342
0.854763 0.151318 2.754762
0.852480 0.155421 2.780828
0.850922 0.151725 2.804991
0.851499 0.154376 2.834938
0.852137 0.154628 2.868271
0.845758 0.151886 2.893137
0.855874 0.154320 2.918627
0.846999 0.154376 2.950109
0.850135 0.156331 2.977696
0.855781 0.154951 2.999346
0.853531 0.153749 3.029412
0.862035 0.143673 3.056863
0.862890 0.158300 3.103922
0.848488 0.185453 1.641176
0.862714 0.186306 1.678432
0.861131 0.190316 1.884314
0.839782 0.187818 2.158823
0.844659 0.182270 2.189706
0.844671 0.180686 2.216994
0.853635 0.185338 2.249623
0.856793 0.185287 2.274866
0.858367 0.172129 2.295098
0.863624 0.192690 2.321569
0.839653 0.170818 2.405882
0.850689 0.179935 2.448039
0.846617 0.179409 2.480392
0.848966 0.175882 2.500654
0.849452 0.176026 2.524930
0.849904 0.180974 2.558088
0.850232 0.180382 2.586275
0.847379 0.179085 2.610588
0.846930 0.189708 2.639461
0.850745 0.187070 2.662745
0.853239 0.185109 2.698431
0.853775 0.181884 2.714706
0.855555 0.178825 2.750980
0.864424 0.191171 2.770588
0.850604 0.179075 2.798039
0.848276 0.168787 2.885294
0.862339 0.173645 2.943137
0.845500 0.183933 2.966667
0.852936 0.180057 3.001177
0.864680 0.180028 3.033987
0.854647 0.196471 1.637255
0.862835 0.200006 1.652941
0.859643 0.219729 1.927451
0.863818 0.221294 1.941176
0.865800 0.223306 1.958823
0.846310 0.216078 2.160784
0.845748 0.214949 2.193333
0.854749 0.213064 2.224619
0.860116 0.206995 2.241830
0.841465 0.202955 2.280392
0.849938 0.209876 2.312745
0.850319 0.212883 2.329657
0.859745 0.209570 2.354657
0.854278 0.219541 2.386275
0.865823 0.221882 2.411765
0.848965 0.206035 2.482353
0.855203 0.213497 2.526471
0.848878 0.203271 2.556863
0.857355 0.207216 2.590196
0.850477 0.199576 2.608824
0.845606 0.201496 2.639869
0.853985 0.201210 2.667507
0.854842 0.210251 2.695556
0.859346 0.210949 2.721569
0.848108 0.212284 3.003922
0.849333 0.218400 3.033333
0.856141 0.216337 3.068627
0.845363 0.214420 3.077778
0.857765 0.220657 3.107843
0.854113 0.222954 3.140196
0.838655 0.246331 1.880392
0.855080 0.242801 1.916591
0.851079 0.237236 1.941958
0.850522 0.238228 1.969441
0.856137 0.240095 1.993702
0.852002 0.242491 2.028201
0.851015 0.245799 2.049787
0.852324 0.241185 2.076961
0.852622 0.238612 2.108964
0.854215 0.232157 2.137255
0.856051 0.233667 2.168628
0.856741 0.228228 2.194510
0.863541 0.232063 2.231373
0.850020 0.227522 2.357843
0.856938 0.230395 2.391503
0.847204 0.232659 2.417157
0.852950 0.238808 2.443978
0.854155 0.242882 2.474790
0.850729 0.242885 2.491176
0.851087 0.240760 2.525490
0.846640 0.236593 2.557843
0.850668 0.227996 2.590850
0.848478 0.237300 2.614706
0.853886 0.228929 2.631373
0.853315 0.232888 2.666667
0.856260 0.230922 2.695425
0.854824 0.238808 2.713726
0.844761 0.232012 2.974510
0.849773 0.230396 2.992157
0.846839 0.236784 3.035294
0.848527 0.236979 3.057843
0.842730 0.244901 3.086928
0.855905 0.240671 3.112418
0.852361 0.250322 3.168628
0.864012 0.245494 3.188235
0.842714 0.261552 1.833333
0.848674 0.260413 1.862745
0.859662 0.262974 1.886765
0.854503 0.260162 1.910621
0.848930 0.256691 1.947168
0.850228 0.260897 1.970157
0.852602 0.269711 1.994958
0.854156 0.265894 2.023117
0.848691 0.262321 2.058456
0.852653 0.260427 2.080845
0.857760 0.266247 2.108824
0.860952 0.274567 2.128431
0.841955 0.274548 2.218628
0.847883 0.277572 2.247549
0.851250 0.253243 2.507353
0.851910 0.254229 2.525490
0.852682 0.255294 2.552941
0.864431 0.258039 2.580392
0.843882 0.265667 3.125490
0.858533 0.272600 3.133333
0.853024 0.260853 3.200980
0.847937 0.294220 1.827451
0.855153 0.296157 1.850981
0.844269 0.290479 2.003712
0.851321 0.295524 2.024471
0.852628 0.296598 2.050245
0.852037 0.296151 2.081443
0.851967 0.299200 2.108824
0.856322 0.295967 2.134734
0.844336 0.297179 2.169118
0.849057 0.295722 2.198693
0.850856 0.295900 2.221569
0.851717 0.297869 2.253758
0.856290 0.291701 2.277362
0.850585 0.292264 2.301226
0.854175 0.304896 2.327451
0.866065 0.300424 2.347059
0.847482 0.287365 2.435294
0.839963 0.316645 1.896079
0.846760 0.318734 1.920098
0.848413 0.321162 1.945551
0.850193 0.320603 1.970196
0.850394 0.316458 1.997427
