ply
format ascii 1.0
element vertex 1767
property float x
property float y
property float z
end_header
-0.003408 0.122682 1.703922
-0.021849 0.108484 1.778432
-0.023277 0.102056 1.790484
-0.007757 0.116362 1.837146
-0.005264 0.119403 1.877255
-0.003831 0.121891 1.919608
-0.004976 0.126071 1.658824
-0.001722 0.125675 1.721569
-0.031246 0.148035 1.777311
-0.027034 0.146844 1.794548
-0.011495 0.147267 1.838167
-0.008425 0.150892 1.883007
-0.007252 0.144799 1.922995
-0.010062 0.147764 1.965319
-0.007580 0.145787 2.005991
-0.006893 0.147247 2.050802
-0.007654 0.149688 2.088889
-0.005986 0.147877 2.136863
-0.005671 0.154836 2.180784
-0.004998 0.154532 2.223529
-0.004494 0.157294 2.247059
-0.009541 0.196381 1.590196
-0.005925 0.196877 1.640392
-0.005831 0.198526 1.664706
-0.023145 0.184248 1.794583
-0.006735 0.195935 1.836710
-0.004376 0.204395 1.875163
-0.009918 0.208271 1.652941
-0.008559 0.210547 1.711765
-0.017689 0.215378 1.761765
-0.033474 0.217603 1.798158
-0.025016 0.226120 1.839272
-0.022661 0.229057 1.879044
-0.017341 0.229684 1.920116
-0.014530 0.231094 1.964052
-0.014246 0.236393 2.003268
-0.008737 0.237564 2.047950
-0.010483 0.241414 2.094608
-0.004761 0.241522 2.118628
-0.039497 0.249552 1.881046
-0.035297 0.255693 1.925708
-0.029599 0.257944 1.973529
-0.021562 0.264470 2.006209
-0.023708 0.266055 2.050000
-0.019052 0.272114 2.086004
-0.013480 0.272335 2.132584
-0.011348 0.270598 2.173351
-0.013676 0.276240 2.207451
-0.008516 0.277247 2.251401
-0.012417 0.272974 2.297647
-0.005247 0.283623 2.334314
-0.012455 0.322137 1.923680
-0.019499 0.319891 1.960922
-0.021222 0.321940 2.005752
-0.022682 0.323949 2.046385
-0.011895 0.315916 2.093086
-0.016431 0.305190 2.132127
-0.012534 0.306737 2.172021
-0.018814 0.308165 2.218674
-0.016995 0.310510 2.258667
-0.025025 0.316606 2.294958
-0.019266 0.317079 2.335662
-0.020424 0.325125 2.381863
-0.015676 0.323176 2.411765
-0.017088 0.324676 2.441176
-0.039307 0.345523 1.901961
-0.022942 0.349478 1.923097
-0.020253 0.352495 1.955428
-0.039007 0.332386 2.007563
-0.040276 0.331720 2.047713
-0.033617 0.332884 2.090360
-0.030452 0.336096 2.133333
-0.028256 0.338457 2.172851
-0.027616 0.340735 2.220711
-0.023782 0.342781 2.253486
-0.027334 0.345366 2.296458
-0.024394 0.351918 2.336573
-0.024263 0.348881 2.379281
-0.024276 0.350013 2.417825
-0.027437 0.354141 2.454050
-0.024533 0.357309 2.505986
-0.026136 0.364378 2.543137
-0.026534 0.366162 2.581233
-0.027422 0.369563 2.611765
-0.001805 0.413316 1.804902
-0.001884 0.408896 1.884314
-0.033960 0.378588 1.934858
-0.022886 0.389392 1.964121
-0.014442 0.403364 2.001436
-0.003813 0.409408 2.034314
-0.029560 0.375262 2.549412
-0.027910 0.375948 2.590850
-0.027283 0.379070 2.632442
-0.013338 0.449943 1.778432
-0.010041 0.439003 1.794700
-0.014655 0.436594 1.838304
-0.014534 0.439170 1.879323
-0.012661 0.436751 1.919020
-0.011429 0.439770 1.966818
-0.021212 0.432294 2.008032
-0.019016 0.433984 2.048571
-0.017195 0.443432 2.082675
-0.013528 0.474636 1.795309
-0.029913 0.480267 1.841255
-0.032591 0.479148 1.880120
-0.032558 0.477145 1.922921
-0.028868 0.474079 1.963091
-0.027631 0.472409 2.010437
-0.031412 0.475871 2.046757
-0.030928 0.467565 2.095309
-0.035409 0.479234 2.116667
-0.007575 0.508998 1.806398
-0.022430 0.516330 1.843900
-0.030567 0.524439 1.877290
-0.039464 0.518637 1.924777
-0.039493 0.507028 1.962500
-0.038098 0.504239 2.004902
-0.039245 0.500259 2.043529
-0.032377 0.570299 1.799020
-0.010108 0.549683 1.851746
-0.016248 0.554988 1.883698
-0.028542 0.564519 1.918487
-0.039755 0.564926 1.952801
-0.019398 0.597681 1.810364
-0.022650 0.602295 1.840784
-0.024609 0.591440 1.879412
-0.015604 0.597572 1.928217
-0.025047 0.606769 1.956863
-0.038068 0.608617 2.003333
-0.008018 0.627366 1.847059
-0.009462 0.637858 1.887255
-0.012186 0.631820 1.932353
-0.010771 0.636241 1.960980
-0.025351 0.641873 2.006824
-0.034284 0.645098 2.047312
-0.036792 0.653856 2.082353
-0.037347 0.685289 1.778432
-0.025195 0.689696 1.796453
-0.025147 0.688487 1.838333
-0.033420 0.693482 1.884314
-0.035788 0.698830 1.921242
-0.023512 0.684263 1.954902
-0.007005 0.671549 2.009177
-0.015114 0.680646 2.050377
-0.030815 0.689383 2.088726
-0.036776 0.692520 2.130867
-0.039941 0.695135 2.158824
-0.023628 0.729157 1.778432
-0.021547 0.724057 1.790168
-0.006883 0.706431 1.850700
-0.013504 0.712217 1.886961
-0.018498 0.717273 1.924220
-0.019110 0.724160 1.962138
-0.025497 0.730440 2.004807
-0.031757 0.730461 2.048833
-0.022428 0.724690 2.093456
-0.026927 0.726890 2.131966
-0.023690 0.731183 2.161312
-0.019563 0.748364 1.778432
-0.021080 0.766646 1.795429
-0.005525 0.749536 2.008824
-0.013515 0.755084 2.052124
-0.018117 0.759008 2.093862
-0.016458 0.761281 2.133506
-0.014064 0.766320 2.165094
-0.021804 0.801580 1.807265
-0.021014 0.822855 1.824428
-0.002145 0.789396 2.145098
-0.004171 0.790105 2.177124
-0.005125 0.792289 2.196732
-0.013432 0.831926 1.838656
0.020489 0.025885 1.798202
0.020308 0.062795 1.798046
0.021176 0.094588 1.411765
0.020725 0.097706 1.480392
0.022861 0.102084 1.523530
0.032488 0.111388 1.547059
0.018734 0.109444 1.591667
0.021018 0.112004 1.633333
0.019824 0.115785 1.683442
0.012224 0.114442 1.716013
0.009887 0.114452 1.754902
0.021674 0.095273 1.795560
0.017985 0.110404 1.840875
0.021343 0.114864 1.884314
0.020230 0.118258 1.927095
0.014107 0.120790 1.957647
0.009984 0.123757 1.996078
0.013522 0.125075 1.690196
0.000000 0.125929 1.749020
0.023475 0.131220 1.803922
0.010534 0.132044 1.834314
0.004309 0.158666 1.876961
0.009375 0.151641 1.923137
0.015412 0.149747 1.964809
0.017146 0.143409 2.009020
0.016741 0.141324 2.046791
0.014822 0.145584 2.089449
0.016774 0.150246 2.136166
0.016762 0.152568 2.170745
0.022678 0.152674 2.215083
0.020457 0.156914 2.253840
0.020509 0.160218 2.297059
0.024018 0.160913 2.338325
0.020090 0.164277 2.363726
0.005329 0.204294 1.776471
0.001051 0.178736 1.813106
0.002662 0.183019 1.840523
0.005874 0.178118 1.881930
0.009538 0.186216 1.924743
0.012434 0.182497 1.962418
0.014411 0.183844 2.004902
0.016019 0.186822 2.050245
0.017986 0.180812 2.093887
0.017670 0.179976 2.132526
0.021366 0.176603 2.170588
0.022429 0.181528 2.216776
0.023271 0.180105 2.251438
0.025996 0.177286 2.295900
0.025222 0.183600 2.338780
0.031656 0.182346 2.371275
0.033259 0.187365 2.424090
0.030955 0.188173 2.456863
0.033325 0.192488 2.500000
0.035576 0.195671 2.541177
0.004529 0.218769 1.807843
0.003718 0.213765 1.858824
0.004367 0.224545 1.871242
0.006773 0.227302 1.929902
0.005356 0.218800 1.968347
0.005799 0.219972 2.005882
0.010671 0.217110 2.050196
0.010481 0.230795 2.095098
0.011092 0.230600 2.133137
0.013111 0.232792 2.169771
0.020510 0.226464 2.213203
0.025538 0.228263 2.258039
0.029427 0.224266 2.297587
0.030403 0.231562 2.337675
0.033550 0.225364 2.379804
0.035190 0.230259 2.414706
0.035357 0.225061 2.450140
0.035495 0.231253 2.513481
0.037411 0.229154 2.550980
0.038559 0.226212 2.570588
0.040353 0.231357 2.690196
0.020293 0.281702 1.934063
0.020968 0.279225 1.959919
0.014718 0.275364 2.003325
0.018261 0.280024 2.046914
0.012778 0.279654 2.089850
0.007451 0.277035 2.132745
0.008921 0.275897 2.175882
0.009113 0.267762 2.209436
0.009909 0.268239 2.254299
0.010507 0.272975 2.295425
0.012985 0.273640 2.335730
0.020680 0.266518 2.376471
0.025673 0.274902 2.422157
0.024641 0.270993 2.464052
0.032879 0.270409 2.513399
0.031351 0.267850 2.548431
0.033564 0.274807 2.582073
0.033432 0.277999 2.622549
0.040088 0.277945 2.672549
0.029092 0.296084 1.898039
0.014073 0.313488 1.927215
0.026216 0.306158 1.959746
0.021273 0.307532 2.002887
0.015869 0.301512 2.049387
0.007906 0.300649 2.088936
0.014769 0.301282 2.131373
0.014611 0.303691 2.170425
0.026993 0.301471 2.205882
0.018600 0.304568 2.256046
0.022730 0.303127 2.294510
0.023789 0.306115 2.341340
0.019827 0.306955 2.377941
0.021527 0.308890 2.418922
0.026067 0.314489 2.461361
0.023563 0.315085 2.500700
0.019873 0.306134 2.543494
0.024237 0.310923 2.585662
0.025889 0.311692 2.629563
0.024899 0.311140 2.666994
0.033028 0.313043 2.711408
0.030743 0.312604 2.747059
0.034192 0.320947 2.790686
0.031042 0.321132 2.821961
0.031598 0.327471 2.872549
0.039444 0.370303 1.798880
0.039477 0.371843 1.836275
0.010229 0.339940 1.933416
0.021413 0.351547 1.961533
0.032445 0.363902 1.998291
0.035775 0.332024 2.468627
0.034998 0.334998 2.500000
0.030098 0.335897 2.539216
0.030487 0.336484 2.584314
0.031563 0.343153 2.629412
0.036303 0.340879 2.675070
0.035152 0.338810 2.703268
0.020872 0.338493 2.755182
0.030650 0.346784 2.787115
0.034565 0.345616 2.832941
0.037241 0.349494 2.864706
0.039258 0.347485 2.907843
0.032741 0.336341 2.976470
0.039255 0.365373 3.019608
0.026676 0.395256 1.778432
0.025192 0.396467 1.792715
0.017887 0.393074 1.839171
0.023180 0.392950 1.882063
0.024115 0.393674 1.926788
0.021841 0.393886 1.965557
0.016773 0.389344 2.007032
0.022854 0.397121 2.046906
0.026054 0.404205 2.072829
0.012449 0.428246 1.778432
0.020037 0.434525 1.792953
0.000000 0.416376 1.858824
0.002204 0.417173 1.886275
0.003597 0.419426 1.921814
0.006291 0.420318 1.968628
0.005260 0.424146 2.000207
0.003924 0.420553 2.055199
0.005812 0.420537 2.075686
0.010671 0.457057 1.778432
0.020561 0.475120 1.794368
0.021216 0.516790 1.799765
0.028344 0.550438 1.803741
0.013073 0.562774 1.842364
0.006423 0.569763 1.872390
0.030128 0.585701 1.851261
0.024272 0.593691 1.881770
0.013012 0.607823 1.923701
0.003896 0.615906 1.948039
0.001857 0.641122 1.852941
0.005682 0.659153 1.894118
0.025831 0.625769 1.933987
0.017352 0.644538 1.965662
0.001667 0.700566 1.795378
0.009658 0.676737 1.930196
0.023154 0.677104 1.977853
0.024130 0.685464 1.993487
0.003332 0.697537 2.038503
0.014820 0.724414 1.778432
0.018420 0.726357 1.792980
0.019638 0.721744 1.839910
0.015947 0.732251 1.881647
0.004310 0.738505 1.930911
0.028947 0.717184 1.975943
0.027729 0.715969 2.006247
0.015079 0.720479 2.048530
0.008339 0.733355 2.086631
0.003704 0.740789 2.120343
0.005928 0.757019 1.778432
0.020332 0.764711 1.792247
0.035664 0.749433 1.894118
0.026778 0.754592 1.927996
0.018461 0.758901 1.966631
0.022630 0.770687 2.002288
0.021096 0.766181 2.052564
0.021775 0.764423 2.095418
0.013594 0.765660 2.126641
0.004514 0.775716 2.162923
0.018003 0.798079 1.808718
0.023139 0.817852 1.831449
0.037074 0.787992 2.022222
0.032439 0.792192 2.051872
0.025177 0.797853 2.092787
0.021350 0.802425 2.134001
0.016265 0.805992 2.176367
0.020662 0.815071 2.198813
0.013893 0.833214 1.850218
0.024856 0.846835 1.878061
0.033328 0.863970 1.912045
0.036751 0.832239 2.177941
0.035685 0.835608 2.208824
0.035189 0.872524 1.927696
0.038939 0.882018 1.947059
0.062442 0.025452 1.798966
0.063826 0.061257 1.778432
0.062262 0.062061 1.792432
0.060680 0.098057 1.797512
0.062111 0.115976 1.835431
0.068279 0.119370 1.877731
0.080614 0.119980 1.919608
0.081941 0.122912 1.950980
0.054673 0.126535 1.885049
0.056322 0.128757 1.923791
0.058500 0.131604 1.966667
0.058818 0.136559 1.997505
0.064124 0.140505 2.046078
0.068218 0.144969 2.090196
0.060635 0.150591 2.137433
0.067281 0.152280 2.170588
0.058265 0.158458 2.212854
0.063335 0.158456 2.252941
0.061067 0.161660 2.293137
0.044388 0.158881 2.336601
0.064369 0.168690 2.219608
0.065256 0.168291 2.249804
0.064799 0.171572 2.297909
0.059816 0.178490 2.336471
0.061319 0.181164 2.381740
0.060881 0.186115 2.425669
0.059824 0.189545 2.461507
0.060678 0.195927 2.504152
0.058267 0.200013 2.542484
0.071408 0.203095 2.581699
0.057674 0.203435 2.621569
0.060927 0.206624 2.649020
0.076469 0.210294 2.294118
0.067355 0.220273 2.338431
0.071637 0.218653 2.379521
0.065933 0.223832 2.419935
0.058210 0.228632 2.463102
0.058342 0.229403 2.502275
0.057337 0.229115 2.543464
0.058427 0.221112 2.586185
0.061961 0.226380 2.629160
0.068057 0.227485 2.661765
0.068364 0.228172 2.714093
0.066323 0.230593 2.745098
0.068352 0.244150 2.790196
0.064922 0.281945 1.854902
0.041547 0.288851 1.978431
0.059507 0.284902 2.005610
0.065059 0.286522 2.041518
0.075820 0.287729 2.077451
0.082359 0.289312 2.111765
0.058184 0.252079 2.551373
0.059392 0.260584 2.582571
0.063109 0.260343 2.629692
0.065316 0.266848 2.673284
0.065666 0.270243 2.710963
0.064134 0.273942 2.753749
0.063664 0.273660 2.791130
0.068474 0.273870 2.833333
0.068093 0.271645 2.872088
0.071250 0.263454 2.927451
0.067013 0.269841 2.954902
0.053355 0.309758 1.923775
0.048145 0.310135 1.972110
0.056169 0.310822 2.004635
0.062664 0.307184 2.046053
0.068920 0.304193 2.087203
0.068745 0.312247 2.130472
0.071044 0.311273 2.167087
0.071936 0.301965 2.209982
0.060587 0.305019 2.256863
0.067368 0.308719 2.290773
0.055255 0.315067 2.338235
0.064652 0.318758 2.376471
0.063923 0.320280 2.418487
0.055883 0.326821 2.457353
0.064972 0.319414 2.500000
0.072523 0.302235 2.590523
0.066103 0.314013 2.629412
0.066512 0.308595 2.673203
0.059380 0.310771 2.710084
0.062004 0.312433 2.747974
0.059432 0.307417 2.786368
0.062661 0.307891 2.836152
0.062448 0.309383 2.876097
0.059302 0.317058 2.917647
0.067768 0.308195 2.967974
0.072646 0.313781 2.995588
0.073793 0.322443 3.032353
0.073971 0.318900 3.081373
0.061652 0.363195 1.778432
0.065861 0.358825 1.792531
0.063098 0.354898 1.838846
0.062879 0.360094 1.879881
0.066000 0.359876 1.927064
0.060697 0.354286 1.967347
0.058231 0.349434 2.008927
0.066013 0.355145 2.043599
0.071254 0.347996 2.090468
0.074726 0.353296 2.125981
0.077503 0.339095 2.175490
0.078672 0.342761 2.211205
0.078763 0.347301 2.250327
0.065595 0.332919 2.430065
0.065037 0.335051 2.461064
0.068423 0.338607 2.501961
0.055906 0.339212 2.540850
0.064262 0.343014 2.580749
0.058974 0.350064 2.627669
0.066255 0.353587 2.668627
0.061036 0.348975 2.710784
0.060801 0.349458 2.747320
0.062270 0.346622 2.796994
0.068970 0.353049 2.830341
0.062613 0.351546 2.872157
0.060030 0.357014 2.913961
0.061755 0.352691 2.963889
0.067702 0.349347 3.000560
0.061979 0.353995 3.038628
0.059570 0.358395 3.080719
0.060639 0.360186 3.120448
0.072881 0.356542 3.169118
0.072433 0.356907 3.196079
0.051130 0.400147 1.778432
0.062896 0.393831 1.795452
0.042618 0.373366 1.852941
0.042621 0.377874 1.894118
0.046461 0.377455 1.929412
0.051009 0.380221 1.963845
0.051287 0.378953 2.005882
0.050066 0.379499 2.046183
0.080233 0.373500 2.766667
0.069675 0.375748 2.787451
0.064945 0.381176 2.823529
0.069082 0.374196 2.878431
0.063819 0.374226 2.900980
0.069837 0.378206 2.959412
0.068406 0.378550 2.999608
0.067575 0.385550 3.041177
0.057464 0.380292 3.079412
0.062696 0.383602 3.115441
0.050635 0.382916 3.164706
0.060467 0.423711 1.778432
0.062926 0.435684 1.796770
0.074694 0.462985 1.778432
0.062038 0.475744 1.796346
0.062588 0.516983 1.799106
0.072204 0.557716 1.778432
0.062862 0.558192 1.797759
0.043765 0.578059 1.823529
0.070838 0.587484 1.801232
0.061660 0.600058 1.836375
0.050310 0.611877 1.879521
0.047692 0.619093 1.907843
0.062499 0.626849 1.888290
0.061305 0.635739 1.916919
0.053677 0.654228 1.962506
0.053953 0.681020 1.977709
0.052778 0.684709 1.995201
0.070182 0.696783 2.038889
0.055454 0.737175 1.795327
0.050903 0.738793 1.834360
0.045688 0.714921 1.978550
0.053676 0.719956 1.999226
0.063286 0.723020 2.043273
0.070954 0.725196 2.086555
0.074965 0.733513 2.129804
0.075353 0.742765 2.152941
0.062735 0.763055 1.795651
0.069088 0.752181 1.845276
0.063336 0.760013 1.879608
0.061528 0.772979 1.920069
0.048770 0.780098 1.963499
0.048701 0.768502 2.003922
0.055927 0.754558 2.047148
0.056526 0.769735 2.092260
0.068406 0.768232 2.128922
0.075189 0.764617 2.179412
0.077622 0.770183 2.208684
0.081176 0.777941 2.254902
0.058841 0.792786 1.813225
0.062246 0.810103 1.835636
0.073675 0.825898 1.865033
0.081200 0.788800 1.933333
0.068098 0.792619 1.966845
0.060243 0.800336 2.010520
0.066789 0.811891 2.040696
0.053451 0.810968 2.095715
0.056874 0.801456 2.129383
0.060036 0.815220 2.168326
0.073348 0.810519 2.212885
0.077375 0.807537 2.253595
0.080685 0.809209 2.294445
0.045835 0.829363 1.858170
0.060026 0.839237 1.882430
0.063732 0.859204 1.919225
0.074937 0.833030 2.098319
0.065835 0.836847 2.136415
0.066282 0.842286 2.174608
0.061130 0.850648 2.216516
0.063838 0.856272 2.242308
0.077828 0.853772 2.296514
0.081625 0.845768 2.345490
0.055896 0.872129 1.938072
0.062563 0.885730 1.965431
0.071913 0.901796 1.997549
0.078849 0.872883 2.221079
0.075512 0.873643 2.240686
0.081682 0.874368 2.300980
0.079800 0.884841 2.347059
0.080640 0.883247 2.371765
0.073548 0.913636 2.018768
0.078647 0.925319 2.042647
0.103911 0.029979 1.778432
0.103581 0.026062 1.794296
0.111914 0.058902 1.472549
0.100664 0.056008 1.513726
0.095942 0.061692 1.555556
0.097263 0.066657 1.594510
0.110509 0.064285 1.640000
0.112237 0.062628 1.681373
0.109501 0.071572 1.724510
0.103166 0.058502 1.773856
0.098406 0.055858 1.793713
0.105778 0.065903 1.839988
0.108937 0.068598 1.884575
0.112572 0.071710 1.921936
0.115302 0.073384 1.965360
0.118349 0.076998 2.000000
0.118781 0.077830 2.048039
0.121118 0.079353 2.088235
0.087853 0.092469 1.806967
0.093048 0.098016 1.840637
0.099288 0.102591 1.881647
0.102514 0.102170 1.920437
0.106593 0.107226 1.965173
0.110311 0.105572 2.005470
0.112884 0.108208 2.044398
0.118178 0.104783 2.086275
0.121790 0.098145 2.128323
0.121361 0.097521 2.167157
0.123639 0.099353 2.207843
0.107069 0.159804 1.598039
0.084820 0.124271 1.972549
0.086282 0.127442 2.006863
0.095087 0.130646 2.051961
0.092407 0.136047 2.088726
0.103304 0.134299 2.128342
0.101932 0.140871 2.178301
0.105515 0.146057 2.217157
0.103498 0.151702 2.254622
0.105189 0.155912 2.298039
0.108438 0.159181 2.337451
0.103812 0.162243 2.372794
0.118465 0.163198 2.417647
0.113333 0.168333 1.666667
0.117841 0.177641 1.758824
0.122165 0.185098 1.850981
0.103298 0.194902 1.949020
0.114483 0.203893 2.008824
0.109222 0.204018 2.060784
0.123529 0.205147 2.205883
0.089392 0.174234 2.272549
0.091900 0.177435 2.311765
0.098972 0.179123 2.335539
0.100425 0.181690 2.376209
0.102135 0.185180 2.420767
0.104052 0.187998 2.465360
0.102877 0.193360 2.506443
0.101425 0.199556 2.548627
0.101435 0.195682 2.588235
0.100668 0.200736 2.625926
0.114369 0.196784 2.659477
0.116690 0.198102 2.713726
0.121129 0.206471 2.752941
0.121992 0.202396 2.772549
0.120534 0.235893 1.883334
0.121070 0.238918 1.932026
0.117123 0.230977 1.968954
0.121029 0.225694 2.005348
0.120225 0.226301 2.050446
0.116988 0.229126 2.093682
0.116516 0.227489 2.134118
0.114988 0.224517 2.176471
0.118645 0.216222 2.217647
0.117196 0.232978 2.254248
0.117090 0.231261 2.295588
0.116961 0.245618 2.339216
0.104737 0.207094 2.380392
0.093512 0.222199 2.428432
0.105339 0.219333 2.455229
0.098162 0.226219 2.505882
0.105164 0.217690 2.545098
0.101955 0.221146 2.586951
0.097838 0.226827 2.625746
0.101752 0.228321 2.669118
0.104261 0.232575 2.714528
0.105935 0.231273 2.743288
0.111695 0.227096 2.792157
0.117671 0.218373 2.828628
0.118216 0.224883 2.883333
0.120139 0.223807 2.906536
0.086567 0.261467 1.766667
0.089510 0.264949 1.790196
0.121453 0.253019 1.840196
0.109466 0.271137 1.889543
0.113234 0.274864 1.928195
0.106995 0.270333 1.969230
0.104245 0.272908 2.001161
0.104371 0.269788 2.045035
0.105055 0.268003 2.090406
0.102762 0.275240 2.133660
0.108420 0.272381 2.175113
0.109306 0.275570 2.210567
0.112647 0.276746 2.265826
0.121359 0.274584 2.295343
0.118700 0.281622 2.327451
0.119410 0.272629 2.376471
0.122730 0.263684 2.430392
0.122647 0.260012 2.452941
0.116441 0.259294 2.504902
0.112157 0.272745 2.549020
0.111545 0.256036 2.579412
0.098658 0.263496 2.631863
0.111391 0.262030 2.667474
0.105401 0.263475 2.712185
0.100981 0.269051 2.746828
0.108838 0.270271 2.790490
0.102658 0.274219 2.833551
0.105189 0.270639 2.882353
0.107827 0.275396 2.914216
0.104253 0.283164 2.957353
0.120014 0.282549 3.038236
0.104927 0.330788 1.778432
0.116947 0.325995 1.798824
0.115218 0.327035 1.837990
0.113899 0.328996 1.875033
0.114571 0.322900 1.926546
0.099072 0.307927 1.966845
0.103068 0.305993 2.005950
0.105788 0.306678 2.046499
0.102872 0.311750 2.086530
0.103781 0.319979 2.133186
0.097062 0.318744 2.172471
0.092493 0.316409 2.206163
0.095470 0.299614 2.254793
0.097098 0.302501 2.304202
0.095374 0.305690 2.338656
0.100412 0.306345 2.380196
0.111245 0.311510 2.418431
0.103199 0.320507 2.462032
0.110488 0.314413 2.499216
0.114873 0.309330 2.547059
0.106139 0.309912 2.584174
0.101981 0.309787 2.626689
0.100015 0.314351 2.669281
0.100127 0.310929 2.709358
0.107109 0.312666 2.748938
0.105992 0.312181 2.792344
0.104588 0.306655 2.831373
0.104593 0.303710 2.871493
0.103170 0.308559 2.919981
0.105440 0.309610 2.959236
0.103899 0.308384 2.999287
0.098328 0.307457 3.035098
0.104057 0.304175 3.078824
0.106602 0.307257 3.135294
0.103247 0.316088 3.160784
0.094257 0.350129 1.778432
0.104383 0.350795 1.790439
0.097668 0.336943 1.839706
0.100306 0.339092 1.888855
0.103110 0.341464 1.922886
0.099434 0.345804 1.965209
0.099031 0.347633 2.008990
0.103412 0.347837 2.049050
0.101755 0.349572 2.088726
0.104060 0.350751 2.130847
0.102436 0.349915 2.173676
0.101017 0.350541 2.210294
0.104065 0.353635 2.250683
0.101645 0.358755 2.297666
0.107047 0.358258 2.341457
0.105497 0.364369 2.374790
0.107137 0.369608 2.407843
0.114781 0.367543 2.442157
0.095287 0.334992 2.507451
0.095016 0.335934 2.545098
0.098176 0.342207 2.584034
0.101771 0.341701 2.623965
0.095857 0.347718 2.662353
0.095181 0.346443 2.706699
0.099930 0.340842 2.753137
0.094623 0.345378 2.788839
0.099187 0.344608 2.834118
0.100203 0.356140 2.875717
0.096231 0.351481 2.915686
0.103523 0.354233 2.963529
0.102756 0.342996 3.006417
0.103359 0.340206 3.048431
0.105349 0.349237 3.087115
0.115051 0.339511 3.126275
0.101767 0.348263 3.160196
0.111204 0.349673 3.207843
0.110771 0.393033 1.778432
0.103726 0.393582 1.795536
0.082971 0.376559 2.127451
0.104154 0.374281 2.289216
0.120469 0.375443 2.339216
0.104133 0.383400 2.366667
0.109886 0.380495 2.423530
0.102653 0.378841 2.444118
0.090892 0.374322 2.932026
0.090051 0.377949 2.961961
0.110855 0.377506 2.996078
0.101856 0.382420 3.041176
0.098727 0.393315 3.084804
0.084071 0.379863 3.113726
0.096391 0.433226 1.778432
0.103371 0.434903 1.790456
0.093368 0.469506 1.778432
0.103701 0.476027 1.792900
0.103888 0.517810 1.799541
0.084179 0.567912 1.778432
0.103746 0.558449 1.793160
0.105900 0.594058 1.791728
0.092820 0.615054 1.829167
0.122494 0.622444 1.814706
0.109124 0.627170 1.842577
0.103383 0.638761 1.881471
0.100234 0.651229 1.921034
0.091801 0.659007 1.953595
0.121553 0.663718 1.929412
0.108985 0.668992 1.961905
0.099879 0.681431 2.008170
0.099070 0.696623 2.053431
0.082902 0.702594 2.072549
0.106889 0.741576 1.908824
0.103671 0.707689 2.063235
0.098188 0.709070 2.089916
0.102499 0.726493 2.129657
0.093017 0.738933 2.173333
0.100664 0.768427 1.804438
0.103578 0.768005 1.839037
0.102007 0.777667 1.880515
0.109411 0.759249 1.918628
0.114805 0.767280 1.967320
0.113275 0.774036 1.987255
0.093841 0.749638 2.182353
0.101675 0.753383 2.216667
0.095886 0.772725 2.256128
0.104466 0.780059 2.287582
0.093494 0.788799 1.816409
0.103119 0.802082 1.837110
0.107584 0.814241 1.876233
0.103674 0.797324 1.926182
0.102864 0.810993 1.966214
0.091360 0.817982 2.003922
0.087896 0.822855 2.037778
0.112235 0.806431 2.078431
0.100540 0.823684 2.130588
0.103334 0.791680 2.301426
0.100445 0.804979 2.341355
0.105485 0.814931 2.373950
0.110216 0.826089 2.422549
0.100867 0.835045 1.891751
0.101745 0.853134 1.925156
0.110524 0.865328 1.951337
0.113745 0.834575 2.016863
0.104171 0.837930 2.052528
0.107763 0.849731 2.084551
0.097135 0.845591 2.136898
0.100110 0.854713 2.174959
0.097609 0.860156 2.208551
0.090041 0.861627 2.251226
0.087843 0.865754 2.311765
0.084936 0.847478 2.385882
0.097693 0.837494 2.420499
0.105931 0.844765 2.458289
0.106505 0.859354 2.496514
0.102100 0.878483 1.970992
0.104171 0.897679 2.005549
0.122958 0.908462 2.032353
0.117932 0.873001 2.125490
0.108393 0.877399 2.174510
0.104714 0.879920 2.216449
0.106517 0.892114 2.247636
0.105867 0.886292 2.292618
0.106228 0.898267 2.332255
0.093892 0.902115 2.377206
0.086180 0.886502 2.420784
0.088222 0.885229 2.467647
0.095921 0.885686 2.507353
0.102393 0.889006 2.549673
0.103605 0.898939 2.579412
0.115518 0.900545 2.625490
0.097177 0.911029 2.024510
0.101960 0.923090 2.048972
0.109942 0.941310 2.084849
0.122612 0.912777 2.270588
0.119018 0.912986 2.349020
0.107821 0.919241 2.390414
0.103354 0.923595 2.421267
0.104130 0.934877 2.458467
0.094921 0.938725 2.498190
0.091311 0.930927 2.546499
0.099872 0.928187 2.598880
0.103744 0.931074 2.626471
0.106047 0.937347 2.667647
0.111994 0.943665 2.709150
0.110452 0.954431 2.107843
0.118934 0.961179 2.123810
0.104318 0.953101 2.508235
0.107673 0.968124 2.548856
0.104299 0.973412 2.585948
0.105467 0.975453 2.629412
0.104579 0.977037 2.670098
0.105073 0.971815 2.702819
0.107880 0.970294 2.750980
0.109003 0.983002 2.794608
0.121327 0.981906 2.821568
0.115055 1.001415 2.635294
0.110857 1.006676 2.667102
0.107583 1.011324 2.714951
0.105643 1.010042 2.749020
0.106915 1.008400 2.795343
0.110023 1.020410 2.833170
0.118490 1.018104 2.872059
0.122824 1.037176 2.729412
0.116118 1.036765 2.764706
0.118070 1.054184 2.788889
0.142670 0.023515 1.778432
0.144748 0.026012 1.791080
0.124282 0.067047 1.635294
0.128633 0.065369 1.721078
0.132254 0.067866 1.740196
0.150175 0.054880 1.796152
0.143908 0.064370 1.840000
0.146143 0.069458 1.883216
0.143278 0.067451 1.919519
0.144106 0.069681 1.965330
0.146200 0.073215 2.004037
0.142221 0.075659 2.045098
0.150309 0.077795 2.093464
0.136701 0.077628 2.132549
0.149487 0.079920 2.175000
0.141693 0.080859 2.225490
0.129053 0.083612 1.817647
0.133412 0.085235 1.852941
0.153884 0.085458 1.884967
0.151108 0.087107 1.925000
0.164871 0.084398 1.962745
0.155372 0.089307 2.002353
0.134508 0.094944 2.049020
0.134691 0.098481 2.086809
0.129574 0.104421 2.131177
0.140914 0.103620 2.178510
0.145832 0.094720 2.217333
0.147331 0.103051 2.256454
0.149648 0.102005 2.295527
0.152912 0.106487 2.335525
0.154644 0.112359 2.373203
0.162811 0.117456 2.430066
0.162800 0.123333 2.466667
0.134333 0.130000 2.166667
0.131021 0.128798 2.220588
0.134725 0.133580 2.264216
0.134849 0.140043 2.290686
0.139224 0.144928 2.340056
0.141181 0.148003 2.376863
0.144890 0.146573 2.421116
0.153959 0.140618 2.463399
0.155838 0.152353 2.501056
0.157691 0.154076 2.537815
0.155611 0.158620 2.579085
0.163024 0.163024 2.629412
0.124400 0.182941 1.829412
0.132860 0.195385 1.953921
0.128951 0.204490 2.014706
0.130263 0.204177 2.051961
0.128578 0.189706 2.107843
0.135265 0.191088 2.147059
0.127486 0.196631 2.160784
0.133942 0.199359 2.210196
0.134520 0.204041 2.242157
0.145694 0.202606 2.276471
0.145855 0.205486 2.329804
0.136104 0.175461 2.419608
0.134976 0.175824 2.462745
0.137548 0.189415 2.503081
0.139123 0.190495 2.544953
0.146409 0.189852 2.587719
0.147956 0.189574 2.628922
0.147663 0.197411 2.667843
0.150648 0.196358 2.712519
0.146075 0.198920 2.743628
0.140353 0.203539 2.788235
0.125697 0.242889 1.890196
0.142855 0.234987 1.938462
0.143024 0.232828 1.962562
0.138871 0.232877 2.002277
0.137283 0.227042 2.045980
0.136465 0.225741 2.090254
0.137483 0.223778 2.133144
0.138050 0.225385 2.177647
0.141040 0.227316 2.212703
0.144930 0.224397 2.253457
0.140457 0.228346 2.290609
0.148007 0.229695 2.339572
0.145749 0.224990 2.382056
0.146233 0.221760 2.416994
0.144868 0.225141 2.465266
0.146699 0.223202 2.506910
0.145519 0.220110 2.546182
0.142550 0.218359 2.584874
0.145460 0.222883 2.625294
0.144157 0.223128 2.661520
0.137610 0.230184 2.708200
0.140753 0.228278 2.748607
0.133970 0.230992 2.791177
0.145471 0.220192 2.828291
0.142741 0.224269 2.884314
0.130853 0.244259 2.907843
0.129033 0.260937 1.890686
0.134067 0.260859 1.929085
0.150559 0.261143 1.967982
0.144682 0.266931 2.004850
0.138848 0.269368 2.046792
0.137754 0.261449 2.085848
0.128030 0.257125 2.125000
0.130121 0.258402 2.173950
0.130859 0.263075 2.203137
0.131395 0.266026 2.252506
0.131358 0.268539 2.297326
0.132793 0.273383 2.336601
0.136262 0.270128 2.378712
0.134238 0.266854 2.411547
0.135167 0.273707 2.457598
0.133909 0.267417 2.503105
0.134708 0.265286 2.544853
0.138232 0.268270 2.583824
0.134502 0.268989 2.630882
0.134297 0.273917 2.668192
0.136163 0.262486 2.713726
0.134563 0.261103 2.754118
0.136207 0.264689 2.793195
0.141054 0.263580 2.827451
0.141390 0.269835 2.870588
0.136009 0.263976 2.925000
0.125753 0.266476 2.994118
0.148944 0.318784 1.778432
0.146532 0.319888 1.793897
0.145772 0.315193 1.838215
0.147043 0.317007 1.886654
0.145743 0.322208 1.919437
0.144552 0.323692 1.967175
0.150638 0.324328 2.005882
0.145718 0.305165 2.052706
0.137718 0.304301 2.090196
0.146353 0.311320 2.132793
0.148264 0.316989 2.171149
0.151405 0.321537 2.209412
0.153608 0.327153 2.254062
0.164471 0.328941 2.284314
0.124810 0.296718 2.354902
0.129628 0.296111 2.378431
0.134142 0.296710 2.417157
0.130971 0.298747 2.452549
0.136422 0.304453 2.507843
0.136248 0.308130 2.546569
0.135434 0.306094 2.586275
0.136355 0.317022 2.630719
0.134421 0.310084 2.669162
0.131487 0.309081 2.711345
0.135136 0.309149 2.749860
0.133252 0.312281 2.789735
0.133738 0.317410 2.825490
0.132749 0.307184 2.875490
0.133376 0.312357 2.910131
0.136573 0.312861 2.959664
0.136635 0.309805 3.002941
0.139664 0.310649 3.052941
0.133976 0.312653 3.080392
0.133706 0.308091 3.127696
0.139121 0.316127 3.161438
0.142438 0.318501 3.200981
0.159466 0.349758 1.778432
0.144847 0.351871 1.788494
0.128773 0.332834 1.931373
0.128988 0.335053 1.962567
0.130870 0.334730 2.010392
0.141647 0.336318 2.051373
0.143893 0.339659 2.089020
0.136604 0.345429 2.137406
0.140456 0.345251 2.173268
0.140838 0.349984 2.216499
0.146331 0.354649 2.256656
0.149050 0.355877 2.296552
0.156301 0.357704 2.335172
0.155419 0.362324 2.374946
0.160467 0.366932 2.422059
0.131569 0.331553 2.631373
0.132800 0.337533 2.766667
0.135333 0.343458 2.838562
0.141716 0.344167 2.892157
0.131471 0.362275 2.921569
0.138083 0.348953 2.969608
0.136994 0.344039 3.000654
0.130485 0.347095 3.034804
0.126256 0.347935 3.079412
0.140206 0.358304 3.115686
0.144646 0.398369 1.778432
0.144924 0.393588 1.789223
0.139956 0.373173 2.294118
0.153185 0.374830 2.342745
0.141817 0.379377 2.363726
0.153790 0.374129 2.421569
0.144288 0.385093 2.445098
0.129694 0.396565 2.494118
0.135068 0.376378 3.035294
0.131286 0.381524 3.089216
0.140327 0.382613 3.118954
0.141302 0.388347 3.157353
0.147630 0.391512 3.209150
0.145831 0.426231 1.778432
0.144644 0.434897 1.789136
0.134145 0.482717 1.778432
0.144468 0.475815 1.789762
0.144053 0.506853 1.778432
0.144878 0.517163 1.793583
0.148380 0.564702 1.542857
0.139403 0.575101 1.584314
0.130715 0.561984 1.778432
0.144802 0.559368 1.796166
0.151039 0.581684 1.590850
0.139522 0.591696 1.635294
0.140961 0.604654 1.671896
0.135239 0.614741 1.712418
0.131604 0.611780 1.778432
0.145457 0.598784 1.789499
0.156851 0.621436 1.704902
0.153189 0.630633 1.764706
0.150468 0.627949 1.797749
0.145694 0.645983 1.841008
0.137897 0.654201 1.876307
0.124520 0.660912 1.915686
0.151541 0.664431 1.840523
0.155534 0.667908 1.885458
0.143165 0.676139 1.924510
0.140770 0.687764 1.965062
0.138191 0.697519 2.002941
0.155072 0.706096 1.979739
0.149977 0.712604 2.003186
0.145672 0.717502 2.042266
0.147026 0.731856 2.085686
0.135450 0.736302 2.125000
0.130673 0.776643 1.813225
0.136718 0.781814 1.832319
0.154339 0.768944 1.881373
0.151876 0.769878 1.922712
0.141894 0.778491 1.961765
0.131094 0.782592 1.986274
0.162424 0.749647 2.082353
0.149589 0.755462 2.136471
0.146658 0.764062 2.175817
0.137098 0.769568 2.211438
0.146476 0.784247 2.253595
0.129822 0.786192 1.815686
0.143801 0.794538 1.840343
0.145393 0.811008 1.876948
0.145935 0.815024 1.924510
0.142348 0.810613 1.958824
0.155444 0.804977 2.009314
0.154061 0.817429 2.046499
0.138341 0.823759 2.096078
0.163376 0.791510 2.207843
0.145469 0.793685 2.255882
0.140106 0.799594 2.296814
0.141089 0.816340 2.335294
0.139761 0.821217 2.377647
0.137323 0.831167 1.898366
0.144660 0.842685 1.922735
0.147368 0.855258 1.960844
0.145438 0.841473 2.006723
0.144403 0.852781 2.046707
0.139160 0.858104 2.085948
0.149095 0.847583 2.131933
0.149289 0.858019 2.163585
0.143359 0.864702 2.205882
0.156182 0.830225 2.343137
0.147486 0.838415 2.378431
0.144428 0.843369 2.419935
0.142433 0.856004 2.463399
0.137739 0.863864 2.498529
0.139643 0.874626 1.980588
0.143355 0.887695 2.005356
0.147979 0.904227 2.036743
0.146943 0.875177 2.097339
0.143310 0.886283 2.135621
0.148054 0.894630 2.175847
0.143361 0.892817 2.213143
0.144916 0.897601 2.252381
0.152814 0.898994 2.298240
0.159817 0.898427 2.336780
0.162365 0.900045 2.376079
0.163867 0.904874 2.409804
0.159071 0.874416 2.466667
0.152072 0.875704 2.493137
0.151481 0.889514 2.550196
0.138358 0.896972 2.589107
0.150371 0.904202 2.615196
0.143164 0.915560 2.054283
0.143730 0.934927 2.089978
0.151132 0.948066 2.117402
0.161294 0.914033 2.179739
0.158149 0.916675 2.217211
0.146006 0.919667 2.261012
0.150510 0.923339 2.291615
0.148728 0.921310 2.338402
0.149436 0.927094 2.380882
0.153219 0.931892 2.419608
0.154722 0.936755 2.460084
0.162459 0.941116 2.503704
0.164730 0.944029 2.534314
0.150882 0.922950 2.632026
0.140758 0.924516 2.668137
0.139638 0.934898 2.704902
0.142151 0.946367 2.744706
0.142268 0.960919 2.135714
0.147988 0.979769 2.170747
0.162728 0.991758 2.199020
0.142526 0.954724 2.470196
0.143049 0.959725 2.503767
0.146432 0.968101 2.543137
0.151541 0.977849 2.586638
0.159179 0.984255 2.623791
0.163235 0.987386 2.661438
0.159531 0.951780 2.703922
0.150422 0.959370 2.755294
0.148488 0.964906 2.788726
0.150614 0.984019 2.828676
0.157451 0.990510 2.862745
0.159369 0.998783 2.207255
0.127304 0.995049 2.598039
0.150708 0.996992 2.632353
0.146300 1.009493 2.668873
0.154282 1.013351 2.712457
0.160115 1.022684 2.747059
0.162999 1.030913 2.786275
0.141010 1.001358 2.877451
0.124922 1.034677 2.715687
0.141884 1.043171 2.755147
0.150720 1.050933 2.795098
0.155914 1.058793 2.834423
0.195186 0.031914 1.484314
0.200508 0.032301 1.515033
0.200353 0.035447 1.541176
0.188958 0.023564 1.778432
0.186187 0.026003 1.793888
0.177843 0.055131 1.778432
0.185171 0.057112 1.795158
0.186130 0.075898 1.838977
0.194610 0.078779 1.880196
0.196944 0.081848 1.918301
0.206388 0.081776 1.947059
0.170083 0.083647 1.858824
0.175041 0.085438 1.886079
0.179317 0.087448 1.924930
0.183172 0.089849 1.961397
0.183600 0.093923 2.013726
0.183399 0.097189 2.052381
0.178693 0.097958 2.093277
0.182142 0.100549 2.136642
0.179505 0.099599 2.173950
0.177757 0.100421 2.209804
0.186277 0.109244 2.253979
0.182780 0.111848 2.300872
0.180959 0.110443 2.338612
0.176638 0.108653 2.375245
0.178973 0.111731 2.413726
0.185788 0.115890 2.458544
0.185000 0.114992 2.500000
0.186915 0.110632 2.543137
0.203263 0.124729 2.309804
0.197833 0.141975 2.327451
0.182996 0.128126 2.383824
0.187946 0.134810 2.416079
0.187963 0.136949 2.462902
0.182475 0.138178 2.501961
0.184333 0.141716 2.547888
0.186793 0.146501 2.582977
0.189279 0.144753 2.627157
0.191198 0.152088 2.670588
0.195383 0.153305 2.713481
0.191732 0.144617 2.745752
0.192734 0.155033 2.793137
0.196961 0.160382 2.813725
0.177691 0.175248 2.450981
0.178706 0.179702 2.509804
0.194042 0.183353 2.553119
0.182440 0.187096 2.587843
0.188160 0.184574 2.632876
0.185011 0.186348 2.671732
0.191630 0.186796 2.710014
0.187099 0.184588 2.746121
0.185585 0.188610 2.792692
0.191246 0.192080 2.831373
0.192153 0.190024 2.868137
0.185185 0.195055 2.902745
0.187659 0.194302 2.961030
0.183598 0.186608 3.009804
0.193757 0.205867 3.027451
0.171745 0.240443 1.807843
0.187649 0.244307 1.857843
0.194224 0.244433 1.880392
0.191764 0.247064 1.907843
0.174123 0.242279 1.971691
0.175373 0.242683 2.003431
0.188769 0.244081 2.043791
0.180278 0.244276 2.084314
0.173079 0.243757 2.133053
0.183423 0.244258 2.174510
0.185648 0.242764 2.221289
0.183342 0.245487 2.259150
0.169412 0.235448 2.334454
0.172787 0.236956 2.376863
0.172091 0.229329 2.411029
0.174910 0.229865 2.463726
0.177776 0.231841 2.501358
0.177395 0.234949 2.545249
0.178703 0.232915 2.593226
0.177274 0.225342 2.627941
0.178397 0.226086 2.667729
0.187276 0.222818 2.709578
0.190246 0.220993 2.750654
0.188282 0.218964 2.789216
0.184166 0.227122 2.833007
0.195129 0.228053 2.881513
0.185333 0.220641 2.912745
0.188855 0.215439 2.951471
0.179882 0.214423 2.999020
0.198322 0.228835 3.050980
0.172164 0.221365 3.074510
0.177371 0.220935 3.111765
0.202306 0.275910 1.839216
0.187493 0.260098 1.894118
0.183711 0.254529 1.934118
0.174949 0.263606 1.967647
0.181081 0.271462 2.004334
0.188456 0.268409 2.048635
0.197652 0.266572 2.086835
0.199616 0.262980 2.126891
0.198038 0.262845 2.176471
0.184529 0.253991 2.213480
0.188690 0.254425 2.258170
0.181240 0.254863 2.294296
0.190365 0.256486 2.337955
0.184338 0.259161 2.375490
0.182426 0.259701 2.419608
0.190529 0.265659 2.459879
0.186065 0.264360 2.501358
0.191931 0.266507 2.545686
0.195633 0.262636 2.584034
0.196336 0.258676 2.621787
0.192814 0.258133 2.666667
0.198814 0.260568 2.714216
0.190911 0.254182 2.750980
0.200461 0.254049 2.784314
0.197665 0.257824 2.864706
0.187685 0.313612 1.798529
0.187458 0.300749 1.841142
0.190942 0.301872 1.883317
0.185806 0.307940 1.923728
0.187233 0.308867 1.965988
0.190215 0.302370 2.007494
0.181930 0.308395 2.048039
0.183380 0.314150 2.089995
0.181663 0.314182 2.133653
0.179379 0.319174 2.170667
0.180731 0.321384 2.214597
0.175742 0.325171 2.255556
0.178459 0.329106 2.317647
0.183475 0.341459 1.778432
0.185746 0.351328 1.791250
0.167893 0.332992 2.098693
0.174247 0.335646 2.137909
0.174538 0.340633 2.177591
0.175135 0.341322 2.214216
0.177956 0.345990 2.258353
0.179134 0.346912 2.295396
0.179751 0.356731 2.334436
0.180155 0.362497 2.379144
0.174575 0.359681 2.415126
0.175830 0.367670 2.467647
0.172508 0.387698 1.778432
0.186711 0.393510 1.795639
0.172224 0.377703 2.375490
0.171933 0.374133 2.421569
0.178467 0.376688 2.471024
0.177539 0.382398 2.513726
0.179802 0.386261 2.541176
0.187653 0.393300 2.570588
0.186852 0.435152 1.798433
0.186461 0.475805 1.799962
0.186730 0.517174 1.798919
0.182082 0.543357 1.445098
0.184974 0.554427 1.476471
0.182838 0.565691 1.511029
0.178091 0.576738 1.549020
0.186778 0.559654 1.798409
0.195089 0.617602 1.469608
0.200449 0.583606 1.548039
0.175937 0.586692 1.581373
0.187675 0.608656 1.631765
0.182202 0.618808 1.672549
0.191181 0.607334 1.778432
0.185967 0.599547 1.790107
0.194959 0.625059 1.488235
0.190334 0.634723 1.516667
0.189724 0.645283 1.545588
0.189517 0.660672 1.586275
0.178953 0.624647 1.688235
0.183187 0.633006 1.712418
0.187298 0.645145 1.766667
0.189024 0.635800 1.796978
0.178136 0.657021 1.835784
0.196176 0.668804 1.601961
0.192344 0.678650 1.630065
0.189959 0.695722 1.676471
0.199247 0.675984 1.819608
0.193277 0.668691 1.847713
0.186130 0.679158 1.881046
0.184205 0.693144 1.920415
0.175013 0.700826 1.959477
0.182784 0.711356 1.724510
0.190130 0.723945 1.752941
0.174940 0.736693 1.799020
0.199093 0.711040 1.939216
0.192814 0.713681 1.969519
0.187133 0.724069 2.004967
0.186049 0.735603 2.041013
0.172973 0.738513 2.071569
0.180385 0.754130 1.841177
0.193019 0.773971 1.882135
0.177281 0.780629 1.921569
0.201961 0.784314 1.960784
0.205400 0.781326 2.013726
0.205471 0.777938 2.046667
0.192865 0.762767 2.089150
0.188248 0.770021 2.133007
0.188169 0.776431 2.162745
0.175996 0.783198 2.200000
0.170049 0.816664 1.888235
0.180267 0.812743 1.922386
0.192697 0.792881 1.966845
0.198843 0.801023 2.008450
0.194400 0.803750 2.047627
0.192185 0.806315 2.089437
0.190541 0.811558 2.131514
0.191220 0.812316 2.170926
0.191873 0.816295 2.213896
0.192178 0.817741 2.257026
0.189429 0.820882 2.282353
0.172224 0.822750 2.327451
0.177044 0.835413 1.926961
0.182573 0.852357 1.963632
0.183046 0.858020 2.001500
0.184555 0.847894 2.053197
0.186300 0.837875 2.092484
0.179549 0.844149 2.132455
0.175974 0.845001 2.172630
0.176052 0.843204 2.211983
0.180143 0.846495 2.255574
0.184644 0.847398 2.293813
0.184453 0.851712 2.332726
0.185441 0.858349 2.370938
0.184377 0.858657 2.408123
0.166353 0.869392 1.980392
0.189497 0.878895 2.009849
0.186510 0.893259 2.049095
0.188100 0.886488 2.089325
0.186419 0.895599 2.131551
0.184358 0.885034 2.174323
0.178515 0.896824 2.215742
0.168637 0.887880 2.252676
0.168019 0.881754 2.295626
0.168519 0.876709 2.336706
0.172258 0.879843 2.382913
0.176223 0.887781 2.422339
0.177878 0.888505 2.460703
0.181877 0.902703 2.500000
0.178418 0.897607 2.542810
0.180705 0.912817 2.065196
0.186601 0.923955 2.088438
0.190484 0.940742 2.127095
0.183985 0.918147 2.175724
0.186762 0.924897 2.217487
0.186845 0.928986 2.255344
0.183179 0.940281 2.282598
0.167009 0.915105 2.470588
0.171540 0.918885 2.506100
0.174148 0.927977 2.542402
0.176148 0.935760 2.588442
0.179547 0.937151 2.626381
0.175549 0.940136 2.680392
0.166614 0.950518 2.731373
0.180097 0.956918 2.147619
0.183277 0.970503 2.173399
0.188427 0.987198 2.205286
0.204605 0.955162 2.260785
0.200197 0.958067 2.297516
0.166677 0.957752 2.590850
0.169502 0.966734 2.633512
0.174692 0.971518 2.679346
0.177918 0.976816 2.712745
0.177040 0.977425 2.753333
0.173569 0.974515 2.784314
0.179271 1.001339 2.221849
0.194463 1.014838 2.250396
0.203920 1.032129 2.278431
0.166016 0.998816 2.721569
0.173289 0.999660 2.750545
0.176453 1.010407 2.791961
0.177506 1.016461 2.824837
0.176458 1.015956 2.875000
0.174386 1.028910 2.906536
0.168879 1.035947 2.838235
0.173214 1.045968 2.881482
0.221248 0.027748 1.500000
0.217549 0.029013 1.553922
0.234602 0.033065 1.574510
0.229000 0.030689 1.629739
0.235438 0.031363 1.665686
0.236404 0.032548 1.713072
0.225330 0.028878 1.766177
0.223100 0.021755 1.796086
0.234866 0.030538 1.838445
0.240449 0.033347 1.884314
0.245092 0.036904 1.924837
0.238024 0.046282 1.652941
0.241035 0.047088 1.681699
0.221456 0.045831 1.762745
0.213940 0.054507 1.801666
0.222257 0.060121 1.840890
0.228934 0.064368 1.883482
0.232891 0.065987 1.924619
0.233840 0.073799 1.957093
0.241525 0.081839 1.996078
0.222024 0.083259 1.982353
0.224896 0.085436 2.012066
0.226384 0.088508 2.047712
0.230135 0.092382 2.092157
0.231403 0.096519 2.133786
0.226491 0.103078 2.175490
0.230114 0.105732 2.211397
0.233534 0.108695 2.253287
0.226949 0.114391 2.292157
0.230730 0.118077 2.335172
0.234976 0.117859 2.376078
0.238974 0.117892 2.414052
0.238884 0.121077 2.454248
0.228800 0.131200 1.600000
0.230162 0.134665 1.632353
0.238056 0.137385 1.668628
0.241164 0.141393 1.710458
0.241295 0.153054 2.262092
0.229507 0.142751 2.303268
0.217135 0.129142 2.342017
0.218911 0.130981 2.376689
0.224003 0.136578 2.428268
0.221166 0.139093 2.464338
0.220879 0.143224 2.506536
0.230281 0.142510 2.540392
0.222985 0.148598 2.585973
0.236540 0.148084 2.622995
0.222482 0.152161 2.673922
0.222922 0.157641 2.711345
0.223979 0.159128 2.748235
0.216923 0.156743 2.799020
0.207120 0.161724 2.837255
0.214165 0.164965 2.894118
0.217755 0.171912 2.292157
0.219266 0.175886 2.345098
0.227735 0.178285 2.381128
0.236656 0.176597 2.414951
0.234339 0.181788 2.462418
0.238068 0.179276 2.505882
0.234266 0.184597 2.541355
0.225974 0.182146 2.589076
0.225448 0.188971 2.629167
0.224253 0.186106 2.667008
0.228273 0.186343 2.708471
0.224708 0.189265 2.744831
0.226173 0.181779 2.787827
0.222013 0.180143 2.833614
0.223963 0.191536 2.871149
0.231503 0.190687 2.914566
0.229637 0.194115 2.956863
0.225912 0.183735 3.011765
0.244738 0.194568 3.040196
0.213094 0.241988 1.805882
0.219800 0.247506 1.847059
0.235191 0.233494 1.893246
0.234621 0.237944 1.923732
0.237652 0.232581 1.968628
0.230868 0.238579 2.003574
0.219434 0.242666 2.042745
0.226375 0.242649 2.090347
0.237142 0.240107 2.132549
0.239271 0.238434 2.170739
0.233878 0.244945 2.214216
0.244024 0.245143 2.249020
0.248188 0.248188 2.298039
0.224288 0.211965 2.464706
0.225176 0.215169 2.501961
0.234502 0.225112 2.548802
0.231669 0.221096 2.587344
0.238557 0.226574 2.631373
0.236427 0.225314 2.667243
0.228624 0.229412 2.708535
0.224870 0.227754 2.750327
0.225668 0.230356 2.791989
0.224961 0.230630 2.830605
0.229383 0.233522 2.871936
0.228940 0.232477 2.919188
0.228101 0.227878 2.959664
0.216984 0.231199 2.993137
0.225369 0.233419 3.032026
0.223973 0.219871 3.081699
0.233077 0.235411 3.118137
0.239776 0.243979 3.154902
0.242604 0.245796 3.192157
0.234113 0.286522 1.804034
0.235017 0.287813 1.833726
0.225602 0.264756 1.885784
0.223357 0.262954 1.926980
0.229921 0.265889 1.964594
0.231744 0.266990 2.008964
0.228980 0.266949 2.049020
0.223580 0.273049 2.089487
0.221597 0.272798 2.130882
0.223144 0.272264 2.171630
0.225128 0.272347 2.205779
0.226523 0.256913 2.255147
0.225694 0.262741 2.293628
0.223760 0.260393 2.338998
0.231142 0.266055 2.372549
0.227643 0.271678 2.412132
0.234844 0.279866 2.459412
0.227604 0.275902 2.496732
0.222015 0.283124 2.547059
0.218860 0.270020 2.584118
0.225338 0.269211 2.624650
0.222780 0.264787 2.665523
0.226410 0.269410 2.707366
0.227868 0.266434 2.753726
0.226380 0.265690 2.791816
0.234109 0.263262 2.835839
0.232655 0.271585 2.875113
0.225874 0.260366 2.919608
0.224753 0.258650 2.947549
0.227981 0.270917 3.005322
0.232491 0.265864 3.034069
0.233825 0.274854 3.076471
0.237774 0.279880 3.118628
0.239436 0.278322 3.171569
0.245494 0.248682 3.188236
0.220017 0.314020 1.778432
0.227660 0.309552 1.793314
0.218615 0.291723 1.842725
0.225511 0.295062 1.886540
0.228196 0.297024 1.928517
0.230494 0.298625 1.963824
0.224671 0.301717 2.003743
0.225711 0.300678 2.045931
0.226812 0.301209 2.092109
0.226625 0.302964 2.129972
0.227376 0.304251 2.169204
0.227252 0.305147 2.209524
0.230930 0.302903 2.249020
0.233297 0.308352 2.293558
0.237924 0.311315 2.336678
0.230471 0.291929 2.560784
0.221529 0.292490 2.596079
0.235811 0.297630 2.630065
0.223345 0.293606 2.669281
0.237763 0.302891 2.714118
0.235550 0.298784 2.749673
0.243044 0.303797 2.793628
0.238615 0.301291 2.831093
0.224976 0.299969 2.884314
0.240047 0.294207 2.927451
0.242286 0.298414 2.954902
0.237000 0.292494 3.000000
0.236984 0.293190 3.038235
0.247608 0.292627 3.215686
0.218969 0.346350 1.778432
0.227673 0.351160 1.792804
0.227741 0.393578 1.799180
0.228070 0.434690 1.798032
0.228666 0.476138 1.799775
0.227955 0.517277 1.797700
0.227960 0.563893 1.473284
0.223854 0.573865 1.504248
0.227943 0.560091 1.796558
0.231835 0.609757 1.431373
0.235694 0.619788 1.454902
0.233358 0.581987 1.522222
0.228232 0.592912 1.556209
0.229413 0.607884 1.598039
0.215090 0.614833 1.629412
0.232579 0.595379 1.778432
0.227287 0.599453 1.789700
0.234818 0.626560 1.472549
0.224834 0.639623 1.509150
0.226599 0.653135 1.543464
0.231686 0.627208 1.654902
0.220772 0.634171 1.680392
0.225993 0.658870 1.747713
0.228917 0.640876 1.797862
0.239100 0.663385 1.562745
0.222717 0.677469 1.605392
0.238020 0.695886 1.647059
0.234817 0.666979 1.765686
0.234884 0.678471 1.812711
0.227282 0.683505 1.837367
0.226350 0.693991 1.881118
0.218501 0.700835 1.908333
0.230812 0.705816 1.672549
0.223061 0.719306 1.715686
0.239425 0.721500 1.765802
0.235368 0.720640 1.803532
0.226780 0.720280 1.837100
0.223878 0.724669 1.878557
0.226904 0.726047 1.923731
0.230938 0.734440 1.962912
0.222863 0.738488 2.004813
0.239038 0.749685 1.810924
0.225576 0.752859 1.844094
0.220452 0.760894 1.883107
0.214635 0.764645 1.924770
0.214594 0.763887 1.963759
0.220010 0.764706 2.006717
0.218995 0.770158 2.046708
0.220726 0.776300 2.086867
0.219508 0.781687 2.126395
0.211373 0.785098 2.156863
0.230156 0.787947 1.894118
0.231851 0.796652 1.932353
0.220949 0.799468 1.964482
0.218163 0.806296 2.000848
0.210342 0.815482 2.032353
0.210229 0.788009 2.098039
0.216386 0.794118 2.134550
0.213680 0.803654 2.176078
0.210988 0.814186 2.217647
0.210954 0.821333 2.244118
0.207516 0.825502 2.280392
0.233269 0.831329 2.018488
0.227029 0.841100 2.051918
0.225905 0.855931 2.089047
0.214351 0.863248 2.122304
0.208173 0.830427 2.262745
0.211571 0.830274 2.287255
0.208625 0.883114 2.025490
0.212915 0.893738 2.053791
0.217478 0.899121 2.086710
0.230395 0.883586 2.132231
0.226203 0.886477 2.169341
0.218309 0.900834 2.205229
0.224887 0.918741 2.100619
0.225609 0.928289 2.133021
0.233496 0.932553 2.166732
0.226307 0.934436 2.216457
0.219959 0.933697 2.256747
0.221230 0.944361 2.285490
0.226404 0.959521 2.174804
0.227138 0.975071 2.210924
0.229299 0.965509 2.254510
0.228958 0.966407 2.299666
0.236837 0.975227 2.328128
0.215517 0.996067 2.233333
0.224369 1.007469 2.257466
0.228120 1.026075 2.288049
0.247333 1.003333 2.333333
0.227559 1.039518 2.302696
