ply
format ascii 1.0
element vertex 1773
property float x
property float y
property float z
end_header
0.160578 0.630635 2.919608
0.162949 0.634337 2.909804
0.162400 0.640900 2.900000
0.162839 0.639726 2.907843
0.163278 0.638535 2.915686
0.161302 0.653849 2.880392
0.161441 0.651635 2.935294
0.163176 0.655569 2.862745
0.163608 0.660275 2.921569
0.162951 0.660692 2.962745
0.160533 0.662200 2.866667
0.161961 0.665196 2.892157
0.162520 0.664853 2.954902
0.160729 0.666729 2.976470
0.161153 0.665502 2.984314
0.162180 0.671890 2.896079
0.161631 0.678274 2.886274
0.162729 0.679977 2.905883
0.163059 0.678441 2.911765
0.162290 0.683937 2.898039
0.160941 0.686118 2.823529
0.161612 0.686141 2.835294
0.163065 0.686588 2.860784
0.161631 0.684047 2.886274
0.162729 0.688031 2.854902
0.160533 0.688000 2.866667
0.161192 0.687945 2.878431
0.161947 0.693247 2.841177
0.160533 0.690867 2.866667
0.163176 0.701373 2.862745
0.162618 0.707529 2.852941
0.163400 0.708067 2.866667
0.160973 0.707129 2.874510
0.161835 0.712643 2.839216
0.162171 0.711275 2.845098
0.162953 0.711847 2.858824
0.160424 0.713312 2.864706
0.160863 0.712392 2.872549
0.161192 0.710973 2.878431
0.161053 0.714849 2.825490
0.161388 0.713506 2.831373
0.161053 0.717675 2.825490
0.164235 0.320259 2.737255
0.164737 0.343435 2.792157
0.166010 0.343275 2.813725
0.164376 0.346365 2.935294
0.163651 0.355518 2.821569
0.164902 0.355392 2.843137
0.166126 0.363224 2.815686
0.166473 0.366804 2.821569
0.166704 0.370139 2.825490
0.164390 0.376147 2.786274
0.164220 0.373741 2.831373
0.166000 0.379033 2.766667
0.166353 0.377067 2.772549
0.163735 0.379177 2.872549
0.164506 0.381988 2.788236
0.165812 0.380224 2.858824
0.164675 0.383294 2.839216
0.166241 0.388835 2.817647
0.166082 0.387526 2.913726
0.166641 0.391753 2.923529
0.166820 0.393016 2.827451
0.164788 0.403447 2.841177
0.166267 0.415667 2.866667
0.164071 0.417373 2.878431
0.166353 0.418853 2.970588
0.166133 0.421267 2.966667
0.164486 0.425902 2.937255
0.164182 0.429178 2.880392
0.165635 0.430071 2.905883
0.164569 0.430871 2.992157
0.163827 0.432973 2.925490
0.165804 0.435235 2.960784
0.166133 0.433133 2.966667
0.163922 0.432157 2.980392
0.166753 0.438824 2.925490
0.164596 0.443822 2.939216
0.165584 0.449443 2.956863
0.166243 0.454200 2.968627
0.164569 0.460792 2.992157
0.164157 0.463157 2.931373
0.165475 0.463920 2.954902
0.165179 0.466303 2.923529
0.164461 0.466471 2.990196
0.165216 0.465608 3.003922
0.166835 0.468865 2.876471
0.164518 0.473349 2.886275
0.166418 0.472976 2.919608
0.164406 0.475912 2.884314
0.165971 0.474618 2.911765
0.165584 0.476055 2.956863
0.164182 0.481025 2.880392
0.164629 0.479447 2.888236
0.166267 0.481600 2.866667
0.166024 0.483247 2.964706
0.166792 0.482506 2.978432
0.166494 0.485129 2.870588
0.164406 0.484565 2.884314
0.165108 0.486318 3.001961
0.163706 0.488141 2.976470
0.164676 0.488041 2.994118
0.163847 0.491541 2.874510
0.164965 0.492000 2.894118
0.166082 0.492420 2.913726
0.164406 0.496102 2.884314
0.165812 0.500294 2.858824
0.166153 0.498459 2.864706
0.164629 0.499665 2.888236
0.164629 0.502553 2.888236
0.166588 0.505412 2.823529
0.164788 0.505729 2.841177
0.165812 0.506012 2.858824
0.166153 0.504188 2.864706
0.164902 0.511765 2.843137
0.166267 0.518867 2.866667
0.166608 0.522804 2.872549
0.164518 0.539733 2.886274
0.166494 0.545412 2.870588
0.164853 0.543725 2.892157
0.166835 0.549406 2.876471
0.166126 0.551875 2.815686
0.164220 0.552118 2.831373
0.164965 0.552777 2.894118
0.166353 0.554510 2.772549
0.166357 0.555463 2.819608
0.166039 0.555373 2.862745
0.163847 0.554780 2.874510
0.166118 0.556494 2.768627
0.163878 0.559447 2.825490
0.165300 0.556800 2.900000
0.164406 0.571094 2.884314
0.165524 0.577880 2.903922
0.165894 0.582035 2.811765
0.166039 0.581137 2.862745
0.165431 0.583216 2.803922
0.165747 0.584477 2.907843
0.166126 0.588478 2.815686
0.166039 0.592588 2.862745
0.164675 0.596235 2.839216
0.164182 0.602002 2.880392
0.165524 0.601112 2.903922
0.166380 0.605280 2.868628
0.164071 0.604471 2.878431
0.166267 0.607733 2.866667
0.163735 0.606108 2.872549
0.166529 0.607686 2.921569
0.164071 0.610227 2.878431
0.163937 0.608910 2.927451
0.164853 0.616029 2.892157
0.164816 0.618059 2.943137
0.165584 0.617984 2.956863
0.166753 0.626055 2.925490
0.163827 0.628980 2.925490
0.164267 0.633600 2.933333
0.165971 0.637676 2.911765
0.163937 0.635257 2.927451
0.164741 0.638733 2.890196
0.165524 0.638863 2.903922
0.165300 0.643800 2.900000
0.165524 0.647575 2.903922
0.163937 0.649894 2.927451
0.164157 0.653696 2.931373
0.165284 0.655388 2.874510
0.164518 0.655184 2.886274
0.166753 0.655310 2.925490
0.163735 0.660686 2.872549
0.164406 0.666276 2.884314
0.166353 0.665412 2.970588
0.166243 0.667941 2.968627
0.164569 0.670243 2.992157
0.166082 0.675984 2.913726
0.166722 0.678384 2.874510
0.164853 0.679657 2.892157
0.165635 0.679977 2.905883
0.166306 0.679812 2.917647
0.163847 0.681259 2.874510
0.164518 0.681161 2.886274
0.163735 0.686539 2.872549
0.164788 0.687565 2.841177
0.165925 0.689449 2.860784
0.166267 0.688000 2.866667
0.165188 0.689733 2.898039
0.165129 0.691835 2.847059
0.166039 0.698510 2.862745
0.166704 0.706373 2.825490
0.165471 0.704676 2.852941
0.163735 0.706647 2.872549
0.165291 0.709198 2.825490
0.164675 0.708384 2.839216
0.165471 0.707529 2.852941
0.165291 0.712024 2.825490
0.165291 0.714849 2.825490
0.165291 0.717675 2.825490
0.169604 0.319745 2.780392
0.168824 0.332020 2.813725
0.168353 0.333900 2.805882
0.169765 0.339529 2.829412
0.168653 0.340265 2.958824
0.167529 0.343435 2.792157
0.170118 0.343071 2.835294
0.169659 0.345271 2.976470
0.169596 0.356439 2.874510
0.167176 0.357412 2.882353
0.167167 0.362667 2.833333
0.169943 0.365810 2.880392
0.168235 0.375726 2.803922
0.169765 0.376312 2.829412
0.168092 0.376071 2.849020
0.167282 0.377094 2.835294
0.169125 0.379839 2.772549
0.170000 0.382500 2.833333
0.167629 0.380718 2.841177
0.169412 0.389647 2.823529
0.169906 0.392541 2.929412
0.169529 0.409696 2.825490
0.169529 0.412522 2.825490
0.167745 0.415098 2.843137
0.169133 0.415667 2.866667
0.167973 0.417035 2.896079
0.168324 0.419382 2.852941
0.167290 0.421110 2.884314
0.170133 0.419467 2.933333
0.168618 0.426588 2.882353
0.168314 0.426588 2.901961
0.167088 0.427980 2.931373
0.167063 0.429178 2.880392
0.170175 0.429763 2.884314
0.168094 0.433506 2.949020
0.168882 0.436765 2.911765
0.167759 0.444414 2.943137
0.167871 0.447655 2.945098
0.168878 0.464416 3.015686
0.168094 0.465945 2.949020
0.169435 0.466690 2.972549
0.167780 0.467388 2.996078
0.169208 0.468343 3.021569
0.168996 0.472024 2.913726
0.169792 0.471320 2.927451
0.167871 0.474161 2.945098
0.168318 0.472471 2.952941
0.168086 0.475278 2.898039
0.168314 0.478824 2.901961
0.169018 0.484135 2.864706
0.169712 0.483247 2.876471
0.167404 0.482008 2.886274
0.169224 0.484329 2.917647
0.168786 0.489194 2.860784
0.169249 0.487667 2.868627
0.167404 0.490667 2.886274
0.169365 0.493741 2.870588
0.167631 0.494224 2.890196
0.169712 0.500506 2.876471
0.170059 0.498647 2.882353
0.167518 0.499665 2.888236
0.167973 0.498126 2.896079
0.168350 0.503635 2.829412
0.168902 0.503843 2.862745
0.169249 0.502010 2.868628
0.168671 0.506012 2.858824
0.170118 0.507518 2.835294
0.167629 0.511412 2.841177
0.169827 0.520996 2.878431
0.166949 0.526753 2.878431
0.170175 0.527829 2.884314
0.167290 0.530714 2.884314
0.167290 0.533598 2.884314
0.169249 0.539302 2.868627
0.167631 0.537576 2.890196
0.169249 0.542171 2.868627
0.167063 0.541514 2.880392
0.167745 0.540833 2.892157
0.167976 0.543788 2.847059
0.169365 0.545412 2.870588
0.167063 0.544394 2.880392
0.167092 0.547843 2.739216
0.168767 0.550567 2.766667
0.169365 0.551153 2.870588
0.167929 0.556094 2.752941
0.169176 0.555463 2.819608
0.169765 0.554565 2.829412
0.167745 0.554412 2.843137
0.167859 0.555671 2.894118
0.169125 0.557282 2.772549
0.168353 0.558371 2.805882
0.169249 0.556514 2.868627
0.167859 0.558565 2.894118
0.168527 0.560837 2.762745
0.169604 0.567200 2.780392
0.168824 0.568373 2.813725
0.168786 0.566435 2.860785
0.168092 0.572653 2.849020
0.168671 0.571765 2.858824
0.169249 0.570857 2.868628
0.168588 0.576010 2.809804
0.169176 0.580839 2.819608
0.169712 0.581047 2.876471
0.167176 0.582235 2.882353
0.169451 0.581392 2.921569
0.168000 0.585200 2.800000
0.168706 0.584847 2.811765
0.168996 0.585659 2.913726
0.167312 0.587059 2.935294
0.169018 0.590129 2.864706
0.169412 0.592941 2.823529
0.167514 0.596235 2.839216
0.168200 0.597400 2.900000
0.168655 0.596108 2.907843
0.168902 0.604039 2.862745
0.169480 0.608980 2.872549
0.168200 0.617700 2.900000
0.169792 0.626475 2.927451
0.167200 0.630667 2.933333
0.168318 0.637835 2.952941
0.169565 0.640253 2.923529
0.166976 0.638612 2.929412
0.167647 0.638235 2.941177
0.167404 0.643639 2.886275
0.168200 0.643800 2.900000
0.169110 0.644367 2.915686
0.169906 0.644471 2.929412
0.168996 0.652674 2.913725
0.167404 0.655184 2.886274
0.169224 0.656471 2.917647
0.167063 0.659610 2.880392
0.169224 0.659388 2.917647
0.170000 0.665833 2.833333
0.167631 0.664745 2.890196
0.168318 0.664412 2.952941
0.168653 0.668694 2.958823
0.168902 0.672745 2.862745
0.169337 0.674429 2.919608
0.169249 0.679865 2.868627
0.169596 0.678384 2.874510
0.168541 0.679977 2.905883
0.168882 0.678441 2.911765
0.169565 0.678259 2.923529
0.168541 0.682882 2.905883
0.167976 0.686141 2.847059
0.169480 0.686539 2.872549
0.167404 0.685490 2.886274
0.169133 0.688000 2.866667
0.168671 0.691835 2.858824
0.167745 0.691225 2.892157
0.168902 0.695647 2.862745
0.169529 0.703547 2.825490
0.168324 0.701823 2.852941
0.169480 0.700902 2.872549
0.169529 0.706373 2.825490
0.167514 0.704126 2.839216
0.168324 0.704676 2.852941
0.169480 0.703775 2.872549
0.166949 0.705216 2.878431
0.169529 0.709198 2.825490
0.167861 0.708429 2.845098
0.166949 0.708094 2.878431
0.169529 0.714849 2.825490
0.169882 0.713506 2.831373
0.169529 0.717675 2.825490
0.170920 0.325027 2.801961
0.170706 0.347102 2.845098
0.171671 0.352377 3.011765
0.171294 0.354008 2.854902
0.170984 0.362255 2.898039
0.170984 0.365153 2.898039
0.171412 0.371392 2.856863
0.173176 0.372329 2.886274
0.173312 0.377876 2.841177
0.172706 0.377075 2.878431
0.172706 0.379953 2.878431
0.172116 0.383733 2.821568
0.173114 0.388110 2.792157
0.171996 0.389106 2.819608
0.173235 0.402353 2.794118
0.170290 0.404078 2.886275
0.172953 0.408282 2.835294
0.172475 0.409980 2.827451
0.171765 0.412235 2.862745
0.172355 0.412522 2.825490
0.171563 0.412914 2.907843
0.172835 0.413047 2.929412
0.170824 0.418518 2.847059
0.170637 0.416471 2.892157
0.171678 0.416102 2.909804
0.171447 0.435882 2.905882
0.172604 0.441749 2.925490
0.170361 0.443525 2.937255
0.170816 0.447655 2.945098
0.170218 0.456900 2.986274
0.173090 0.462569 2.984314
0.171894 0.464416 3.015686
0.170247 0.466712 2.935294
0.172749 0.467614 2.978431
0.173090 0.465553 2.984314
0.170441 0.466471 2.990196
0.171910 0.469110 2.913726
0.173067 0.469333 2.933333
0.170816 0.471216 2.945098
0.172067 0.468733 2.966666
0.172229 0.468343 3.021569
0.170579 0.472707 2.891176
0.172257 0.472976 2.919608
0.170637 0.480098 2.892157
0.171100 0.478500 2.900000
0.170522 0.482663 2.890196
0.172000 0.487333 2.866667
0.171176 0.490706 2.852941
0.172000 0.490200 2.866667
0.173176 0.487780 2.886274
0.171412 0.497094 2.856863
0.172235 0.496612 2.870588
0.172118 0.502010 2.868628
0.171882 0.507053 2.864706
0.172471 0.505914 2.874510
0.171176 0.513529 2.852941
0.171882 0.518512 2.864706
0.172588 0.523518 2.876471
0.170522 0.526016 2.890196
0.170522 0.531796 2.890196
0.173192 0.533773 2.839216
0.171412 0.538519 2.856863
0.172471 0.537533 2.874510
0.170290 0.539733 2.886274
0.171216 0.539765 2.901961
0.171910 0.539039 2.913725
0.171529 0.548894 2.858824
0.171882 0.547159 2.864706
0.172941 0.547647 2.882353
0.173114 0.555639 2.792157
0.171159 0.555565 2.805882
0.170588 0.554412 2.843137
0.172235 0.554024 2.870588
0.172384 0.558859 2.780392
0.172627 0.556863 2.784314
0.172475 0.557008 2.827451
0.172471 0.557655 2.874510
0.170406 0.557429 2.888236
0.172263 0.561243 2.778431
0.171059 0.564494 2.850981
0.171876 0.577618 2.817647
0.170588 0.580000 2.843137
0.172706 0.584322 2.878431
0.173073 0.587312 2.837255
0.171996 0.589298 2.819608
0.173073 0.590149 2.837255
0.171176 0.590559 2.852941
0.172594 0.594177 2.829412
0.171953 0.592941 2.964706
0.172257 0.598520 2.919608
0.171059 0.601557 2.850981
0.171271 0.602400 2.952941
0.171447 0.618953 2.905883
0.173067 0.627733 2.933333
0.170929 0.633618 2.947059
0.170929 0.636565 2.947059
0.171043 0.642886 2.949020
0.171725 0.642490 2.960784
0.172076 0.647335 2.731373
0.170290 0.646526 2.886275
0.170753 0.645388 2.894118
0.173182 0.645765 2.935294
0.172257 0.648153 2.919608
0.173067 0.648267 2.933333
0.170753 0.654071 2.894118
0.170290 0.655184 2.886274
0.171910 0.655588 2.913725
0.170984 0.660753 2.898039
0.171398 0.663114 2.809804
0.171757 0.661686 2.815686
0.172941 0.662941 2.882353
0.171563 0.665896 2.907843
0.171910 0.670157 2.913726
0.170706 0.671443 2.845098
0.172118 0.671259 2.868627
0.171794 0.672618 2.911765
0.171412 0.677076 2.856863
0.170753 0.677224 2.894118
0.172488 0.678259 2.923529
0.173312 0.681882 2.841177
0.171706 0.682530 2.861765
0.172488 0.681182 2.923529
0.171294 0.685177 2.854902
0.171176 0.687559 2.852941
0.170637 0.688333 2.892157
0.171765 0.692784 2.862745
0.173192 0.698447 2.839216
0.170824 0.697529 2.847059
0.172000 0.699467 2.866667
0.172824 0.699935 2.880392
0.171773 0.701286 2.839216
0.170824 0.700376 2.847059
0.172355 0.706373 2.825490
0.172714 0.705012 2.831373
0.171773 0.704126 2.839216
0.172355 0.709198 2.825490
0.172355 0.712024 2.825490
0.172355 0.714849 2.825490
0.172355 0.717675 2.825490
0.176541 0.338612 2.894118
0.176661 0.341737 2.896078
0.176302 0.346824 2.890196
0.175704 0.348527 2.880392
0.175704 0.354288 2.880392
0.176661 0.359114 2.896079
0.174627 0.372157 2.862745
0.174508 0.377624 2.860785
0.175584 0.377075 2.878431
0.174747 0.383871 2.864706
0.174208 0.387753 2.809804
0.174627 0.386471 2.862745
0.176031 0.397490 2.839216
0.175225 0.399284 2.872549
0.174208 0.407422 2.809804
0.175765 0.407188 2.929412
0.174824 0.413749 2.913726
0.175059 0.417224 2.917647
0.174388 0.420247 2.858824
0.176063 0.427169 2.886275
0.176541 0.431224 2.894118
0.173882 0.428910 2.898039
0.174824 0.434145 2.913726
0.174235 0.435588 2.903922
0.175059 0.440565 2.917647
0.176235 0.446463 2.937255
0.173992 0.448251 2.949020
0.176588 0.450300 2.943137
0.176588 0.453243 2.943137
0.175033 0.453900 2.966666
0.173992 0.457098 2.949020
0.173545 0.457800 2.992157
0.175727 0.458678 2.978431
0.175727 0.464635 2.978431
0.174227 0.462604 3.003922
0.175294 0.467451 2.921569
0.173529 0.467647 2.941177
0.175727 0.467614 2.978431
0.174918 0.468424 2.964706
0.176235 0.472898 2.937255
0.174471 0.476886 2.907843
0.176353 0.479092 2.939216
0.175412 0.482382 2.923529
0.173671 0.486847 2.847059
0.174867 0.487333 2.866667
0.176000 0.486933 2.933333
0.174029 0.490706 2.852941
0.175882 0.489539 2.931373
0.175412 0.491153 2.923529
0.174269 0.495666 2.856863
0.175345 0.503039 2.874510
0.174627 0.506706 2.862745
0.175345 0.505914 2.874510
0.174029 0.507824 2.852941
0.175424 0.512124 2.829412
0.176153 0.511412 2.841177
0.174029 0.512103 2.852941
0.174388 0.517447 2.858824
0.175465 0.523518 2.876471
0.173647 0.529624 2.894118
0.174269 0.534233 2.856863
0.176661 0.538671 2.896079
0.175529 0.538290 2.925490
0.174471 0.540859 2.907843
0.175529 0.541216 2.925490
0.175345 0.543282 2.874510
0.174086 0.555953 2.807843
0.173671 0.558024 2.847059
0.175704 0.558796 2.880392
0.176541 0.558565 2.894118
0.175345 0.560529 2.874510
0.174451 0.571186 2.813725
0.175288 0.575947 2.782353
0.174208 0.581629 2.809804
0.174208 0.584439 2.809804
0.175545 0.591757 2.831373
0.174986 0.590937 2.868628
0.174747 0.604453 2.864706
0.173882 0.614384 2.898039
0.174353 0.618953 2.905883
0.176000 0.627733 2.933333
0.173876 0.633618 2.947059
0.176235 0.640322 2.937255
0.173992 0.639937 2.949020
0.174686 0.639529 2.960784
0.176235 0.643259 2.937255
0.173645 0.643075 2.943137
0.176302 0.647404 2.890196
0.174000 0.646700 2.900000
0.176471 0.647059 2.941177
0.176541 0.651177 2.894118
0.174235 0.650478 2.903922
0.175529 0.649459 2.925490
0.176000 0.648267 2.933333
0.174300 0.652933 2.766667
0.176063 0.652298 2.886274
0.173647 0.654071 2.894118
0.174471 0.654265 2.907843
0.174747 0.656018 2.864706
0.174916 0.656297 2.891176
0.173478 0.660337 2.798039
0.174208 0.660304 2.809804
0.175106 0.660235 2.870588
0.175213 0.660306 2.896079
0.176524 0.666867 2.801961
0.173910 0.667129 2.850981
0.176422 0.668088 2.892157
0.175176 0.668590 2.919608
0.176275 0.673824 2.843137
0.174706 0.672618 2.911765
0.176275 0.676667 2.843137
0.176275 0.679510 2.843137
0.174986 0.679865 2.868627
0.174588 0.677984 2.909804
0.176518 0.683294 2.847059
0.176118 0.680988 2.935294
0.175225 0.686539 2.872549
0.175704 0.685533 2.880392
0.175465 0.693229 2.876471
0.176031 0.695608 2.839216
0.176518 0.694682 2.847059
0.174029 0.696118 2.852941
0.174867 0.696600 2.866667
0.175345 0.695631 2.874510
0.176031 0.698447 2.839216
0.173671 0.697529 2.847059
0.175180 0.702134 2.825490
0.176031 0.701286 2.839216
0.175180 0.709198 2.825490
0.175545 0.707843 2.831373
0.175180 0.712024 2.825490
0.175180 0.714849 2.825490
0.175180 0.717675 2.825490
0.179071 0.332147 2.888236
0.176780 0.344867 2.898039
0.177618 0.355235 2.911765
0.178624 0.360082 2.835294
0.179241 0.364173 2.845098
0.178463 0.368439 2.878431
0.177976 0.370306 2.870588
0.177855 0.375790 2.868628
0.178584 0.374451 2.880392
0.177733 0.378400 2.866667
0.178933 0.378400 2.933333
0.177529 0.378729 2.958823
0.177369 0.380484 2.860785
0.178341 0.385447 2.876471
0.178253 0.390459 2.829412
0.179365 0.390047 2.847059
0.176761 0.390584 2.850981
0.178698 0.393694 2.792157
0.178994 0.394924 2.841177
0.179314 0.393333 2.892157
0.179735 0.399412 2.852941
0.177635 0.406024 2.819608
0.179735 0.407971 2.852941
0.177125 0.408531 2.856863
0.179435 0.408071 2.894118
0.178455 0.409569 2.925490
0.179241 0.412539 2.845098
0.177369 0.417675 2.860785
0.177378 0.415822 2.907843
0.178933 0.416533 2.933333
0.179647 0.422171 2.994118
0.179071 0.424571 2.888236
0.177020 0.435294 2.901961
0.177139 0.438492 2.903922
0.177976 0.443482 2.917647
0.178335 0.447300 2.923529
0.179890 0.454149 2.949020
0.176941 0.457098 2.949020
0.177647 0.461882 2.960784
0.178353 0.466690 2.972549
0.178933 0.469333 2.933333
0.177529 0.470453 2.958823
0.178235 0.469353 2.970588
0.178455 0.479780 2.925490
0.177176 0.478377 2.952941
0.177976 0.490871 2.870588
0.178827 0.490333 2.884314
0.177139 0.490763 2.903922
0.179412 0.494118 2.941177
0.178706 0.495765 2.882353
0.179314 0.500343 2.892157
0.179314 0.503235 2.892157
0.177125 0.508522 2.856863
0.177855 0.507747 2.868628
0.179314 0.509020 2.892157
0.179735 0.513529 2.852941
0.177247 0.511729 2.858824
0.178706 0.524588 2.882353
0.177004 0.531012 2.854902
0.177618 0.532853 2.911765
0.178220 0.537533 2.874510
0.178220 0.540408 2.874510
0.178455 0.541216 2.925490
0.179173 0.540455 2.937255
0.178949 0.545506 2.886274
0.178335 0.555471 2.923529
0.177065 0.558325 2.855883
0.178706 0.559176 2.882353
0.179435 0.558565 2.894118
0.176900 0.556800 2.900000
0.177976 0.557271 2.917647
0.177265 0.565559 2.813725
0.178129 0.565490 2.827451
0.178376 0.563443 2.831373
0.179241 0.563329 2.845098
0.177247 0.563188 2.858824
0.179735 0.576294 2.852941
0.177004 0.582400 2.854902
0.178871 0.584878 2.839216
0.176882 0.587706 2.852941
0.178500 0.589333 2.833333
0.178584 0.590480 2.880392
0.177733 0.602000 2.866667
0.179071 0.609418 2.888236
0.176780 0.614384 2.898039
0.178388 0.613776 3.023530
0.178735 0.618000 3.029412
0.177976 0.621459 2.917647
0.179292 0.628992 2.939216
0.179053 0.634024 2.935294
0.176824 0.633618 2.947059
0.178416 0.639937 2.949020
0.177294 0.638259 2.954902
0.179200 0.644000 2.800000
0.179053 0.642829 2.935294
0.179531 0.641604 2.943137
0.176900 0.646700 2.900000
0.179953 0.649518 2.811765
0.178006 0.649863 2.825490
0.179557 0.648722 2.896079
0.178814 0.650765 2.931373
0.179292 0.649567 2.939216
0.179771 0.648353 2.947059
0.179241 0.651527 2.845098
0.176761 0.652875 2.850981
0.176941 0.655235 2.764706
0.178071 0.656635 2.782353
0.176761 0.655726 2.850981
0.178706 0.657176 2.882353
0.179488 0.658124 2.849020
0.178220 0.664012 2.874510
0.178376 0.665373 2.831373
0.176761 0.667129 2.850981
0.179365 0.680447 2.847059
0.177857 0.679355 2.915686
0.178216 0.677804 2.921569
0.179365 0.691835 2.847059
0.178431 0.692314 2.854902
0.177369 0.692310 2.860785
0.178220 0.692757 2.874510
0.178871 0.695608 2.839216
0.179735 0.696118 2.852941
0.178006 0.697896 2.825490
0.178871 0.698447 2.839216
0.178006 0.702134 2.825490
0.178006 0.706373 2.825490
0.178006 0.709198 2.825490
0.178006 0.712024 2.825490
0.178006 0.714849 2.825490
0.178376 0.719169 2.831373
0.181137 0.338902 2.921569
0.182353 0.355882 2.941177
0.180455 0.358090 2.819608
0.181341 0.362682 2.878431
0.181259 0.362518 2.923529
0.182212 0.364424 2.847059
0.181380 0.365686 2.925490
0.181584 0.368843 2.837255
0.181723 0.369168 2.861765
0.181086 0.371078 2.968627
0.181959 0.375471 2.888236
0.180471 0.375980 3.007843
0.180724 0.378659 2.868628
0.181218 0.376818 2.876471
0.180129 0.377977 2.952941
0.180971 0.382049 2.872549
0.183147 0.386018 2.817647
0.181059 0.383241 3.017647
0.183176 0.384671 3.052941
0.181710 0.388973 2.839216
0.183147 0.391653 2.817647
0.180204 0.394196 2.815686
0.183216 0.395059 2.862745
0.181259 0.394676 2.923529
0.181459 0.402612 2.835294
0.180600 0.404200 2.866667
0.181465 0.409016 2.880392
0.183153 0.410664 2.861765
0.180894 0.414306 2.917647
0.180967 0.418300 2.966667
0.182824 0.423686 2.901961
0.181059 0.422471 3.017647
0.181380 0.432973 2.925490
0.182231 0.437943 2.939216
0.182110 0.440588 2.937255
0.182596 0.444710 2.945098
0.181624 0.448200 2.929412
0.182961 0.448549 2.950980
0.181988 0.452035 2.935294
0.182353 0.455882 2.941177
0.180608 0.458922 2.960784
0.182718 0.462688 2.947059
0.180967 0.462800 2.966666
0.181684 0.467614 2.978431
0.182596 0.471216 2.945098
0.181565 0.470282 2.976470
0.181206 0.472324 2.970588
0.181684 0.479528 2.978432
0.182475 0.482674 2.943137
0.180369 0.481969 2.956863
0.181094 0.485792 2.874510
0.181959 0.485224 2.888236
0.182641 0.485047 2.994118
0.181341 0.489333 2.878431
0.180043 0.490763 2.903922
0.180529 0.489177 2.911765
0.181206 0.490147 2.970588
0.182965 0.491718 2.858824
0.181712 0.493218 2.884314
0.182475 0.491504 2.943137
0.181588 0.495765 2.882353
0.180967 0.495433 2.966667
0.181804 0.494745 2.980392
0.182206 0.500343 2.892157
0.182086 0.509273 2.845098
0.183216 0.509569 2.862745
0.180408 0.509216 2.909804
0.180353 0.512431 2.862745
0.181094 0.511663 2.874510
0.182947 0.511090 2.903922
0.182947 0.513994 2.903922
0.180106 0.517447 2.858824
0.181959 0.525659 2.888236
0.183216 0.529608 2.862745
0.182086 0.532033 2.845098
0.182463 0.530282 2.850981
0.182453 0.532878 2.896079
0.183194 0.532135 2.907843
0.180724 0.536433 2.868627
0.181465 0.535753 2.880392
0.181712 0.533598 2.884314
0.180894 0.533929 2.917647
0.183216 0.538196 2.862745
0.180286 0.537951 2.907843
0.181380 0.538290 2.925490
0.181465 0.541514 2.880392
0.181959 0.545877 2.888236
0.182965 0.554612 2.858824
0.180476 0.555753 2.864706
0.181218 0.555159 2.876471
0.181959 0.554541 2.888236
0.183071 0.555024 2.905883
0.181259 0.555471 2.923529
0.182965 0.557471 2.858824
0.180476 0.558618 2.864706
0.180165 0.557929 2.905883
0.181259 0.558394 2.923529
0.183216 0.561098 2.862745
0.180724 0.562251 2.868627
0.182086 0.566175 2.845098
0.182255 0.566392 2.803922
0.181712 0.568210 2.884314
0.183020 0.571584 2.815686
0.181208 0.571937 2.831373
0.181710 0.570682 2.839216
0.182588 0.570588 2.852941
0.180078 0.582441 2.813725
0.181459 0.584071 2.835294
0.180476 0.587265 2.864706
0.181465 0.587600 2.880392
0.182947 0.589496 2.903922
0.182576 0.605690 2.898039
0.181137 0.619373 2.921569
0.181624 0.623965 2.929412
0.182110 0.628573 2.937255
0.182231 0.631931 2.939216
0.180129 0.634882 2.952941
0.181988 0.636959 2.935294
0.182353 0.635294 2.941177
0.181988 0.639894 2.935294
0.182453 0.645826 2.896079
0.180043 0.647575 2.903922
0.180894 0.647718 2.917647
0.181745 0.647833 2.931373
0.182231 0.646627 2.939216
0.182718 0.645406 2.947059
0.183147 0.648059 2.817647
0.181208 0.648384 2.831373
0.180043 0.653382 2.903922
0.181094 0.655388 2.874510
0.181835 0.659153 2.841177
0.180286 0.660080 2.907843
0.181380 0.661161 2.925490
0.183020 0.667318 2.815686
0.181341 0.667796 2.878431
0.182082 0.673416 2.890196
0.181459 0.674800 2.835294
0.181712 0.674929 2.884314
0.180043 0.676614 2.903922
0.180773 0.676439 2.915686
0.182337 0.686614 2.849020
0.182212 0.688988 2.847059
0.180724 0.688471 2.868628
0.181710 0.692769 2.839216
0.182212 0.691835 2.847059
0.181094 0.692757 2.874510
0.180831 0.695071 2.825490
0.181710 0.695608 2.839216
0.180831 0.697896 2.825490
0.180831 0.702134 2.825490
0.180831 0.706373 2.825490
0.180831 0.709198 2.825490
0.180831 0.712024 2.825490
0.180831 0.714849 2.825490
0.181208 0.719169 2.831373
0.185514 0.350082 2.992157
0.183447 0.355059 2.958823
0.186000 0.357000 3.000000
0.184422 0.363169 2.837255
0.185314 0.362075 2.850981
0.183341 0.360953 2.864706
0.183569 0.361216 2.960784
0.184055 0.365141 2.968627
0.185824 0.368788 2.858824
0.183447 0.372812 2.958824
0.183341 0.375276 2.864706
0.183325 0.375522 2.956863
0.185224 0.382024 2.894118
0.186349 0.384918 3.054902
0.185441 0.388000 2.852941
0.186349 0.387973 3.054902
0.184294 0.391271 2.835294
0.183529 0.395294 2.823529
0.185098 0.393333 2.892157
0.184676 0.392804 2.931373
0.183812 0.396800 2.917647
0.184722 0.401192 2.886274
0.185569 0.402541 2.854902
0.186461 0.413082 2.868627
0.184059 0.429471 2.921569
0.184800 0.448800 2.933333
0.186159 0.449145 2.954902
0.184553 0.454059 2.929412
0.184924 0.452035 2.935294
0.184924 0.457906 2.935294
0.184553 0.459918 2.929412
0.183569 0.461882 2.960784
0.185851 0.467531 2.903922
0.185294 0.467647 2.941177
0.185665 0.465635 2.947059
0.184800 0.469333 2.933333
0.183447 0.470453 2.958823
0.183812 0.468424 2.964706
0.185027 0.480475 2.984314
0.185418 0.482674 2.943137
0.184055 0.483886 2.968627
0.185224 0.486212 2.894118
0.185725 0.484627 2.901961
0.183565 0.486592 2.913726
0.184429 0.485957 2.927451
0.186035 0.487235 2.952941
0.185635 0.485047 2.994118
0.184676 0.488682 2.841177
0.184176 0.490147 2.970588
0.184676 0.491524 2.841177
0.185475 0.492667 2.898039
0.185976 0.491094 2.905883
0.183690 0.491816 2.962745
0.184931 0.495047 2.845098
0.185349 0.495229 2.896079
0.184931 0.497892 2.845098
0.184094 0.497629 2.876471
0.183784 0.503286 2.827451
0.185314 0.501773 2.850981
0.185098 0.503235 2.892157
0.183784 0.506114 2.827451
0.185696 0.505665 2.856863
0.185098 0.506127 2.892157
0.185098 0.509020 2.892157
0.183688 0.507329 2.915686
0.185475 0.512953 2.898039
0.184059 0.511275 2.921569
0.185824 0.514588 2.858824
0.183718 0.516706 2.870588
0.183718 0.519576 2.870588
0.184094 0.523518 2.876471
0.183784 0.525906 2.827451
0.184931 0.526343 2.845098
0.185186 0.524220 2.849020
0.184167 0.529833 2.833333
0.183467 0.527467 2.866667
0.184973 0.528906 2.890196
0.184847 0.545877 2.888236
0.184847 0.548765 2.888236
0.184094 0.552282 2.876471
0.184847 0.551653 2.888236
0.183441 0.553235 2.911765
0.185824 0.557471 2.858824
0.184596 0.556673 2.884314
0.185706 0.565559 2.813725
0.183843 0.565892 2.872549
0.184039 0.566275 2.831373
0.185696 0.568516 2.856863
0.183718 0.568376 2.870588
0.186353 0.570353 2.823529
0.184294 0.569894 2.835294
0.186353 0.576000 2.823529
0.184549 0.579200 2.839216
0.185441 0.584853 2.852941
0.183843 0.583127 2.872549
0.185314 0.590153 2.850981
0.185951 0.589322 2.860785
0.185725 0.594902 2.901961
0.183341 0.595859 2.864706
0.185475 0.605690 2.898039
0.185475 0.611486 2.898039
0.185725 0.609412 2.901961
0.183565 0.611882 2.913726
0.183441 0.614382 2.911765
0.186102 0.616463 2.907843
0.183935 0.618957 2.919608
0.184553 0.623965 2.929412
0.184676 0.627314 2.931373
0.184800 0.633600 2.933333
0.185171 0.631931 2.939216
0.184800 0.636533 2.933333
0.185171 0.640749 2.939216
0.185349 0.642929 2.896079
0.186353 0.643500 2.911765
0.184306 0.643608 2.925490
0.185171 0.643688 2.939216
0.183912 0.647935 2.829412
0.185600 0.646700 2.900000
0.183318 0.645976 2.909804
0.184676 0.647833 2.931373
0.184676 0.656312 2.841177
0.184596 0.657624 2.884314
0.186227 0.657616 2.909804
0.184553 0.656188 2.929412
0.183812 0.659388 2.917647
0.184676 0.659559 2.931373
0.185314 0.661427 2.850981
0.184182 0.663641 2.923529
0.186094 0.668247 2.819608
0.184931 0.677133 2.845098
0.184094 0.675971 2.876471
0.185951 0.686588 2.860785
0.183969 0.687008 2.874510
0.184549 0.689929 2.839216
0.185441 0.688985 2.852941
0.183969 0.689882 2.874510
0.186482 0.692245 2.825490
0.184549 0.692769 2.839216
0.185070 0.695071 2.825490
0.184549 0.695608 2.839216
0.185070 0.697896 2.825490
0.185070 0.702134 2.825490
0.185070 0.706373 2.825490
0.183657 0.709198 2.825490
0.185576 0.711376 2.811765
0.185965 0.715682 2.817647
0.184039 0.714922 2.831373
0.184039 0.719169 2.831373
0.189371 0.345676 3.005883
0.189000 0.348000 3.000000
0.186729 0.355388 3.011765
0.186716 0.361941 2.872549
0.187735 0.361029 2.888236
0.188753 0.362526 2.996079
0.188165 0.364926 2.850981
0.189459 0.364565 2.870588
0.187984 0.364220 2.937255
0.187641 0.363369 2.978431
0.187733 0.366667 2.933333
0.187765 0.369569 2.980392
0.188012 0.367071 2.984314
0.188388 0.371153 2.811765
0.187147 0.371324 2.970588
0.187388 0.374776 2.839216
0.187608 0.375216 2.886274
0.188165 0.379180 2.850981
0.188245 0.379386 2.896079
0.187480 0.380729 2.884314
0.188941 0.383608 2.862745
0.188627 0.385961 2.901961
0.188118 0.387812 2.894118
0.186604 0.387786 2.915686
0.188941 0.392196 2.862745
0.189718 0.390933 2.874510
0.188118 0.390706 2.894118
0.188553 0.394247 2.856863
0.187733 0.393067 2.933333
0.189329 0.398739 2.868627
0.188110 0.396794 2.939216
0.189329 0.401608 2.868627
0.186900 0.400500 2.966667
0.186716 0.407902 2.872549
0.186843 0.411055 2.874510
0.189588 0.419392 2.872549
0.187482 0.424765 2.929412
0.189647 0.431812 2.917647
0.189114 0.431416 2.954902
0.189774 0.435022 2.919608
0.188486 0.432929 2.945098
0.189365 0.437906 2.958823
0.187641 0.440808 2.978431
0.186776 0.444706 2.964706
0.187765 0.444078 2.980392
0.188012 0.450631 2.984314
0.189616 0.453300 2.962745
0.189239 0.455357 2.956863
0.189741 0.459529 2.964706
0.188988 0.463612 2.952941
0.189741 0.462494 2.964706
0.188424 0.465349 2.854902
0.188500 0.466900 2.900000
0.188188 0.466824 2.917647
0.189365 0.467494 2.958823
0.188373 0.469482 2.898039
0.188612 0.468582 2.947059
0.189010 0.473978 2.907843
0.187608 0.474882 2.931373
0.186653 0.477002 2.962745
0.189365 0.482288 2.958824
0.188012 0.483459 2.984314
0.189239 0.484925 2.956863
0.188035 0.490031 2.849020
0.188553 0.488524 2.856863
0.187608 0.490667 2.886274
0.189392 0.489506 2.913726
0.188235 0.488235 2.941177
0.189490 0.488529 2.960784
0.188629 0.488041 2.994118
0.189045 0.490953 2.821569
0.186612 0.491977 2.827451
0.188294 0.493559 2.852941
0.187098 0.492212 2.878431
0.189647 0.493082 2.917647
0.188026 0.494804 2.827451
0.187388 0.499702 2.839216
0.187776 0.506427 2.845098
0.188553 0.505665 2.856863
0.187776 0.509273 2.845098
0.189439 0.520251 2.827451
0.186588 0.519576 2.870588
0.189045 0.521990 2.821568
0.186612 0.523078 2.827451
0.187776 0.523498 2.845098
0.188812 0.523524 2.860784
0.188025 0.525906 2.827451
0.187735 0.525659 2.888236
0.187480 0.527829 2.884314
0.188294 0.533500 2.852941
0.187735 0.542988 2.888236
0.187098 0.552659 2.878431
0.187735 0.551653 2.888236
0.188882 0.552118 2.905883
0.189265 0.550324 2.911765
0.189200 0.553267 2.866667
0.187098 0.555537 2.878431
0.189200 0.559000 2.866667
0.188152 0.557275 2.872549
0.189071 0.561482 2.864706
0.186588 0.562635 2.870588
0.189045 0.564314 2.821569
0.186612 0.565490 2.827451
0.188294 0.567735 2.852941
0.189588 0.568765 2.872549
0.189718 0.566278 2.874510
0.187608 0.568596 2.886274
0.189702 0.571937 2.831373
0.187480 0.571094 2.884314
0.186741 0.574371 2.829412
0.189702 0.574769 2.831373
0.188035 0.584049 2.849020
0.189200 0.590533 2.866667
0.189459 0.594212 2.870588
0.186855 0.595600 2.919608
0.188941 0.598314 2.862745
0.189200 0.596267 2.866667
0.187098 0.598714 2.878431
0.189071 0.601588 2.864706
0.187608 0.603231 2.886274
0.189459 0.608565 2.870588
0.187863 0.606941 2.890196
0.186971 0.609812 2.876471
0.187608 0.609004 2.886274
0.187863 0.615612 2.890196
0.186604 0.621041 2.915686
0.187106 0.625635 2.923529
0.187608 0.630245 2.931373
0.187984 0.634447 2.937255
0.188294 0.639059 2.852941
0.189265 0.640588 2.911765
0.187231 0.640682 2.925490
0.188863 0.640363 2.950980
0.188755 0.641767 2.903922
0.186855 0.642314 2.919608
0.188863 0.643314 2.950980
0.187990 0.644951 2.892157
0.189010 0.645541 2.907843
0.189392 0.652675 2.913726
0.188941 0.655569 2.862745
0.189702 0.659710 2.831373
0.187388 0.658698 2.839216
0.188941 0.658431 2.862745
0.188118 0.659859 2.894118
0.188110 0.658384 2.939216
0.187731 0.661263 2.801961
0.188941 0.661294 2.862745
0.187998 0.661638 2.914706
0.188737 0.663529 2.949020
0.189329 0.668390 2.868628
0.188755 0.676614 2.903922
0.188035 0.678067 2.849020
0.189718 0.678384 2.874510
0.187906 0.683294 2.847059
0.187388 0.687090 2.839216
0.189200 0.685133 2.866667
0.188755 0.685325 2.903922
0.189308 0.689420 2.825490
0.187388 0.689929 2.839216
0.188294 0.687559 2.852941
0.187226 0.688414 2.880392
0.189365 0.689406 2.958823
0.189308 0.692245 2.825490
0.187388 0.692769 2.839216
0.189308 0.695071 2.825490
0.189308 0.697896 2.825490
0.188388 0.702941 2.811765
0.189308 0.702134 2.825490
0.188782 0.708638 2.817647
0.188782 0.712865 2.817647
0.186871 0.710675 2.831373
0.188782 0.715682 2.817647
0.186871 0.713506 2.831373
0.193076 0.358571 3.064706
0.191841 0.362367 3.045098
0.192724 0.365312 2.876471
0.191271 0.365153 2.898039
0.190794 0.363976 2.935294
0.192212 0.366118 3.050981
0.191749 0.368518 2.996078
0.192502 0.366957 3.007843
0.190235 0.371824 2.882353
0.192800 0.374259 2.835294
0.189965 0.377094 2.835294
0.192724 0.376818 2.876471
0.190106 0.377331 2.880392
0.192933 0.380192 2.837255
0.191541 0.383082 2.858824
0.192724 0.388324 2.876471
0.191271 0.391235 2.898039
0.191541 0.394518 2.858824
0.192724 0.394076 2.876471
0.191541 0.397376 2.858824
0.192329 0.401882 2.870588
0.190106 0.406135 2.880392
0.190096 0.411402 2.837255
0.191659 0.412357 2.903922
0.192067 0.412800 2.866667
0.191016 0.416243 2.850981
0.189976 0.417373 2.878431
0.190624 0.415906 2.888236
0.192953 0.418065 2.923529
0.192592 0.422553 2.874510
0.190029 0.423912 2.923529
0.192824 0.429471 2.921569
0.190922 0.428839 2.937255
0.191431 0.432929 2.945098
0.191304 0.441471 2.943137
0.189867 0.442033 2.966667
0.191176 0.447059 2.941177
0.191814 0.445598 2.950981
0.189992 0.445294 2.968627
0.190118 0.448559 2.970588
0.192451 0.453000 2.960784
0.190243 0.451827 2.972549
0.192706 0.459529 2.964706
0.191941 0.463612 2.952941
0.193088 0.463412 2.970588
0.192800 0.467824 2.835294
0.190106 0.466624 2.880392
0.191176 0.467647 2.941177
0.192069 0.466875 2.954902
0.192667 0.470333 2.833333
0.191278 0.468204 2.854902
0.192176 0.468794 2.911765
0.191541 0.471706 2.858824
0.191012 0.474635 2.894118
0.192986 0.478145 2.880392
0.192800 0.482000 2.835294
0.191941 0.484282 2.952941
0.191016 0.487518 2.850981
0.191541 0.486000 2.858824
0.192855 0.486455 2.878431
0.192069 0.487559 2.954902
0.191529 0.490431 2.901961
0.192953 0.488229 2.923529
0.190284 0.488884 2.927451
0.191278 0.491043 2.854902
0.190624 0.491000 2.888236
0.192706 0.492141 2.964706
0.192329 0.496612 2.870588
0.191410 0.502808 2.856863
0.191804 0.506706 2.862745
0.191016 0.507475 2.850981
0.191804 0.512431 2.862745
0.189847 0.517765 2.876471
0.191467 0.520902 2.815686
0.192667 0.521333 2.833333
0.190884 0.521371 2.849020
0.191012 0.523835 2.894118
0.193067 0.528094 2.839216
0.191918 0.529227 2.907843
0.191541 0.534600 2.858824
0.191400 0.545200 2.900000
0.191278 0.550996 2.854902
0.192855 0.552659 2.878431
0.191012 0.552777 2.894118
0.192067 0.556133 2.866667
0.190365 0.553788 2.884314
0.192329 0.562635 2.870588
0.192855 0.561294 2.878431
0.189965 0.564224 2.835294
0.191278 0.565271 2.854902
0.192198 0.565120 2.868627
0.190096 0.570288 2.837255
0.190884 0.581200 2.849020
0.191673 0.586461 2.860785
0.192933 0.590149 2.837255
0.191541 0.591776 2.858824
0.192198 0.590937 2.868628
0.193067 0.593396 2.839216
0.190884 0.592596 2.849020
0.191016 0.595855 2.850981
0.191935 0.601588 2.864706
0.192855 0.607349 2.878431
0.190106 0.607763 2.880392
0.191141 0.616865 2.896079
0.189902 0.625216 2.921569
0.191559 0.633618 2.947059
0.193065 0.637953 2.798039
0.191529 0.641333 2.901961
0.191659 0.638863 2.903922
0.192565 0.638965 2.917647
0.192069 0.641214 2.954902
0.192451 0.639529 2.960784
0.190753 0.644514 2.890196
0.191012 0.642494 2.894118
0.190922 0.643259 2.937255
0.191304 0.641604 2.943137
0.190882 0.650735 2.892157
0.190000 0.656618 2.794118
0.191733 0.656969 2.819608
0.192000 0.660706 2.823529
0.190490 0.659608 2.843137
0.190412 0.659118 2.929412
0.190284 0.661604 2.927451
0.191600 0.664965 2.817647
0.190096 0.666755 2.837255
0.190490 0.665294 2.843137
0.190884 0.675218 2.849020
0.190753 0.680447 2.847059
0.191147 0.679000 2.852941
0.193067 0.681412 2.839216
0.190753 0.683294 2.847059
0.192133 0.686594 2.825490
0.191174 0.686144 2.839216
0.192133 0.689420 2.825490
0.190227 0.689929 2.839216
0.192133 0.692245 2.825490
0.192533 0.696518 2.831373
0.192961 0.694659 2.968627
0.190494 0.696494 2.976470
0.192533 0.699349 2.831373
0.192961 0.697627 2.968627
0.191600 0.701594 2.817647
0.192533 0.702180 2.831373
0.191600 0.704412 2.817647
0.191600 0.708638 2.817647
0.191600 0.712865 2.817647
0.191600 0.715682 2.817647
0.195388 0.354141 3.052941
0.193447 0.362329 3.070588
0.193471 0.366422 2.931373
0.195024 0.366408 2.954902
0.193255 0.365373 3.019608
0.193733 0.367524 2.849020
0.195876 0.368365 2.923529
0.193853 0.366829 2.982353
0.194563 0.371702 2.903922
0.195200 0.373176 2.870588
0.194431 0.374353 2.901961
0.195365 0.379404 2.831373
0.196176 0.378137 2.843137
0.193600 0.378659 2.847059
0.194694 0.377765 2.905883
0.193341 0.380824 2.929412
0.194933 0.387000 2.866667
0.196133 0.392267 2.884314
0.193333 0.395196 2.843137
0.194133 0.393977 2.854902
0.193906 0.393600 2.894118
0.194300 0.408900 2.900000
0.194533 0.414814 2.860785
0.194933 0.412800 2.866667
0.195467 0.419678 2.874510
0.195867 0.423418 2.880392
0.194694 0.430071 2.905882
0.194118 0.436765 2.941177
0.195412 0.444118 2.960784
0.194506 0.447953 2.947059
0.195541 0.447375 2.962745
0.195412 0.453000 2.960784
0.194765 0.457402 2.950980
0.195541 0.456263 2.962745
0.193343 0.458075 2.974510
0.194506 0.459741 2.947059
0.194894 0.463612 2.952941
0.194300 0.466900 2.900000
0.195088 0.465882 2.911765
0.195412 0.467804 2.960784
0.193380 0.470463 2.886274
0.194169 0.469482 2.898039
0.193729 0.469647 2.935294
0.195024 0.469829 2.954902
0.195733 0.472063 2.878431
0.195733 0.480698 2.878431
0.193733 0.481484 2.849020
0.193212 0.483029 2.927451
0.194694 0.485282 2.905882
0.193859 0.487584 2.937255
0.194267 0.488524 2.856863
0.194563 0.487859 2.903922
0.195333 0.494078 2.872549
0.193212 0.491812 2.927451
0.193467 0.495047 2.845098
0.194400 0.494576 2.858824
0.194267 0.499951 2.856863
0.196312 0.503582 2.845098
0.194667 0.503843 2.862745
0.195500 0.504333 2.833333
0.194267 0.505665 2.856863
0.193867 0.507475 2.850981
0.196000 0.515941 2.882353
0.194688 0.521990 2.821568
0.194889 0.522075 2.845098
0.195333 0.522804 2.872549
0.194694 0.523059 2.905882
0.193249 0.524945 2.884314
0.194694 0.525965 2.905882
0.196312 0.529188 2.845098
0.194267 0.534233 2.856863
0.195088 0.547412 2.911765
0.194133 0.550996 2.854902
0.195733 0.552659 2.878431
0.194533 0.554992 2.860785
0.194694 0.555024 2.905883
0.193729 0.554771 2.935294
0.193729 0.557706 2.935294
0.195200 0.562635 2.870588
0.196133 0.562441 2.884314
0.194755 0.562941 2.843137
0.194667 0.563961 2.862745
0.193600 0.566565 2.847059
0.193867 0.570196 2.850981
0.194533 0.577878 2.860785
0.194933 0.581933 2.866667
0.196267 0.580141 2.886274
0.195229 0.582859 2.829412
0.194267 0.585657 2.856863
0.194933 0.584800 2.866667
0.195365 0.587510 2.831373
0.193200 0.588124 2.841177
0.194800 0.590129 2.864706
0.195771 0.592986 2.837255
0.195467 0.603647 2.874510
0.193380 0.611890 2.886274
0.195867 0.613524 2.880392
0.194431 0.621020 2.901961
0.194694 0.618953 2.905882
0.195351 0.626873 2.915686
0.195745 0.631059 2.921569
0.194376 0.630251 2.945098
0.195745 0.633980 2.921569
0.193988 0.631931 2.939216
0.194037 0.637137 2.896079
0.194563 0.635959 2.903922
0.195351 0.635620 2.915686
0.193729 0.636959 2.935294
0.194506 0.636565 2.947059
0.194282 0.639161 2.815686
0.193341 0.638612 2.929412
0.194959 0.647037 2.825490
0.195482 0.644800 2.917647
0.194667 0.649843 2.862745
0.194169 0.649161 2.898039
0.194826 0.648449 2.907843
0.195745 0.648588 2.921569
0.194267 0.651365 2.856863
0.196000 0.651412 2.882353
0.194012 0.655141 2.811765
0.195229 0.656423 2.829412
0.194667 0.655569 2.862745
0.195614 0.656912 2.919608
0.194418 0.659329 2.817647
0.193333 0.659608 2.843137
0.195333 0.660686 2.872549
0.194169 0.660753 2.898039
0.193775 0.662304 2.892157
0.195733 0.664918 2.878431
0.193249 0.666276 2.884314
0.196041 0.667676 2.841177
0.193341 0.667906 2.929412
0.195412 0.669137 2.960784
0.196312 0.675711 2.845098
0.195906 0.678573 2.839216
0.193467 0.679978 2.845098
0.194400 0.680400 2.858824
0.194800 0.678935 2.864706
0.195906 0.681412 2.839216
0.194959 0.686594 2.825490
0.195365 0.685192 2.831373
0.195906 0.684251 2.839216
0.193467 0.685669 2.845098
0.193212 0.685024 2.927451
0.194959 0.689420 2.825490
0.195365 0.693686 2.831373
0.195365 0.696518 2.831373
0.194418 0.698777 2.817647
0.195365 0.699349 2.831373
0.194012 0.702941 2.811765
0.194418 0.701594 2.817647
0.194418 0.708638 2.817647
0.194418 0.712865 2.817647
0.194824 0.717176 2.823529
0.197145 0.354245 3.080392
0.196988 0.365427 2.854902
0.196576 0.366347 2.978432
0.199153 0.364076 3.111765
0.197600 0.369047 2.905882
0.199200 0.369106 2.929412
0.197716 0.368873 2.950980
0.199292 0.368839 2.974510
0.196529 0.368871 3.023530
0.198569 0.369643 3.054902
0.196769 0.368941 3.074510
0.199404 0.367651 3.115686
0.197067 0.370949 2.898039
0.196549 0.376251 2.807843
0.197784 0.375790 2.825490
0.199294 0.375812 2.847059
0.199288 0.375471 2.888236
0.196853 0.376588 2.852941
0.197844 0.378359 2.888236
0.199157 0.384088 2.845098
0.197124 0.385676 2.856863
0.197935 0.395871 2.868628
0.196933 0.396763 2.896079
0.198333 0.399500 2.833333
0.198206 0.405029 2.872549
0.199018 0.403804 2.884314
0.196533 0.404627 2.890196
0.199018 0.409573 2.884314
0.197733 0.410006 2.907843
0.198747 0.414776 2.880392
0.198933 0.415420 2.925490
0.199153 0.418510 2.886274
0.196665 0.416812 2.935294
0.198747 0.420537 2.880392
0.199029 0.424794 2.970588
0.197844 0.427459 2.888236
0.198882 0.438118 2.882353
0.197059 0.438235 2.941177
0.197733 0.444900 2.907843
0.198800 0.444376 2.923529
0.198504 0.447375 2.962745
0.199555 0.446765 2.978431
0.199067 0.450827 2.927451
0.197190 0.450300 2.943137
0.199029 0.451529 2.970588
0.196927 0.455578 2.939216
0.198110 0.455357 2.956863
0.198635 0.462494 2.964706
0.198400 0.466824 2.917647
0.198635 0.465459 2.964706
0.198000 0.468794 2.911765
0.197847 0.469518 2.952941
0.198635 0.468424 2.964706
0.196718 0.473263 2.850981
0.196933 0.472061 2.896079
0.198267 0.472341 2.915686
0.198747 0.475265 2.880392
0.197800 0.478733 2.866667
0.197394 0.483473 2.860785
0.197935 0.481929 2.868628
0.197665 0.487000 2.864706
0.197067 0.486871 2.898039
0.196988 0.491043 2.854902
0.198747 0.492547 2.880392
0.197510 0.499418 2.821569
0.198882 0.498647 2.882353
0.197529 0.503843 2.862745
0.199153 0.502212 2.886274
0.198882 0.505729 2.841177
0.198747 0.504069 2.880392
0.198476 0.514888 2.876471
0.196718 0.521729 2.850981
0.197600 0.523059 2.905882
0.198745 0.525255 2.839216
0.199157 0.529188 2.845098
0.198000 0.527029 2.911765
0.197529 0.535333 2.862745
0.199559 0.543725 2.892157
0.198400 0.548518 2.917647
0.197394 0.552131 2.860785
0.198071 0.551153 2.870588
0.197600 0.555024 2.905883
0.198206 0.557275 2.872549
0.199200 0.556588 2.929412
0.196665 0.557706 2.935294
0.197453 0.556994 2.947059
0.199157 0.560484 2.845098
0.197124 0.562802 2.856863
0.197665 0.561482 2.864706
0.198206 0.560147 2.872549
0.197665 0.570077 2.864706
0.198882 0.582441 2.841177
0.199294 0.580800 2.847059
0.198471 0.584071 2.835294
0.196853 0.584853 2.852941
0.197529 0.584000 2.862745
0.199559 0.587108 2.892157
0.197935 0.602412 2.868627
0.198476 0.606935 2.876471
0.197200 0.611900 2.900000
0.196933 0.613969 2.896079
0.197600 0.621859 2.905882
0.197333 0.626824 2.901961
0.198133 0.626451 2.913725
0.197867 0.631427 2.909804
0.198243 0.633820 2.792157
0.198882 0.634118 2.882353
0.197978 0.632953 2.890196
0.197867 0.634337 2.909804
0.196686 0.637825 2.809804
0.199153 0.637867 2.886274
0.198059 0.639447 2.829412
0.197333 0.638431 2.901961
0.197098 0.641977 2.815686
0.199424 0.641624 2.890196
0.196933 0.642929 2.896079
0.197600 0.642200 2.905882
0.197784 0.647037 2.825490
0.197665 0.647424 2.864706
0.197373 0.648510 2.819608
0.197647 0.652235 2.823529
0.198471 0.657788 2.835294
0.198133 0.655588 2.913725
0.197510 0.660247 2.821568
0.198471 0.660624 2.835294
0.198206 0.663559 2.872549
0.198612 0.662039 2.878431
0.197922 0.664451 2.827451
0.197453 0.666035 2.947059
0.198745 0.670055 2.839216
0.198745 0.672894 2.839216
0.196447 0.671906 2.847059
0.198333 0.677167 2.833333
0.198745 0.675733 2.839216
0.196533 0.674667 2.933333
0.196447 0.675659 2.976470
0.197784 0.678118 2.825490
0.197784 0.680943 2.825490
0.197784 0.686594 2.825490
0.198196 0.685192 2.831373
0.197784 0.692245 2.825490
0.198196 0.690855 2.831373
0.197235 0.695959 2.817647
0.198196 0.696518 2.831373
0.197235 0.698777 2.817647
0.196824 0.702941 2.811765
0.197235 0.701594 2.817647
0.196706 0.700392 2.980392
0.197235 0.708638 2.817647
0.197235 0.712865 2.817647
0.197647 0.717176 2.823529
0.201245 0.359145 3.096078
0.202265 0.364076 3.111765
0.201353 0.368188 2.876471
0.202451 0.367304 2.892157
0.200506 0.369047 2.905882
0.201182 0.367376 2.915686
0.200606 0.368276 2.994118
0.199914 0.371671 2.815686
0.201867 0.371078 2.968627
0.200588 0.370784 3.039216
0.201373 0.371765 3.098039
0.200031 0.371933 3.125490
0.200888 0.376312 2.829412
0.199694 0.373341 2.894118
0.200610 0.378616 2.825490
0.201216 0.376561 2.874510
0.202837 0.385676 2.856863
0.200804 0.390133 2.868628
0.201627 0.394614 2.880392
0.199965 0.394133 2.898039
0.200371 0.397837 2.903922
0.201167 0.399500 2.833333
0.200804 0.401608 2.868628
0.199965 0.402827 2.898039
0.201216 0.408180 2.874510
0.202451 0.416471 2.892157
0.200533 0.421710 2.949020
0.201627 0.423418 2.880392
0.202451 0.422255 2.892157
0.200371 0.426876 2.903922
0.202039 0.435827 2.886275
0.200371 0.438492 2.903922
0.201724 0.435606 2.923529
0.200000 0.438235 2.941177
0.202588 0.439906 2.894118
0.201859 0.438824 2.925490
0.200641 0.444900 2.907843
0.199867 0.443822 2.939216
0.201733 0.445000 2.966667
0.201859 0.450525 2.925490
0.201336 0.455578 2.939216
0.200371 0.464627 2.903922
0.201600 0.462494 2.964706
0.202535 0.466712 2.935294
0.200000 0.467647 2.941177
0.202000 0.466382 2.970588
0.201600 0.468424 2.964706
0.202400 0.472267 2.933333
0.202265 0.474882 2.931373
0.202420 0.478965 2.850981
0.200392 0.480941 2.862745
0.200529 0.478406 2.864706
0.201724 0.479459 2.923529
0.202314 0.488443 2.890196
0.202314 0.497114 2.890196
0.202141 0.503929 2.847059
0.199980 0.502808 2.856863
0.202039 0.505098 2.886274
0.200118 0.511729 2.858824
0.200100 0.522000 2.900000
0.201409 0.525663 2.856863
0.200641 0.526320 2.907843
0.202420 0.527431 2.850981
0.202039 0.528188 2.886274
0.200235 0.528157 2.901961
0.200392 0.535333 2.862745
0.201216 0.540408 2.874510
0.202141 0.549482 2.847059
0.199843 0.550996 2.854902
0.200529 0.550024 2.864706
0.202176 0.551653 2.888236
0.199694 0.552777 2.894118
0.202559 0.556324 2.852941
0.201994 0.553288 2.927451
0.200000 0.555882 2.941177
0.201584 0.557906 2.839216
0.199706 0.559176 2.852941
0.200529 0.558618 2.864706
0.201078 0.557275 2.872549
0.202129 0.556588 2.929412
0.200255 0.566435 2.860784
0.201027 0.580431 2.831373
0.202141 0.580800 2.847059
0.201863 0.585686 2.843137
