ply
format ascii 1.0
element vertex 1670
property float x
property float y
property float z
end_header
-0.436167 0.212720 3.060784
-0.426865 0.208784 3.100654
-0.439765 0.219882 3.141176
-0.417857 0.195758 3.157516
-0.423746 0.200498 3.195098
-0.423966 0.209245 3.226848
-0.431377 0.213577 3.255686
-0.438479 0.218693 3.280392
-0.418321 0.226986 2.725569
-0.426833 0.241912 2.758001
-0.431699 0.238774 2.769281
-0.410626 0.224903 2.901961
-0.415489 0.226378 2.939869
-0.418793 0.225736 2.970196
-0.418018 0.228517 3.001120
-0.421849 0.229998 3.026275
-0.421431 0.226049 3.068628
-0.416889 0.233531 3.097255
-0.423022 0.231831 3.124314
-0.427190 0.232773 3.161520
-0.422972 0.238824 3.190476
-0.425668 0.238833 3.221289
-0.422519 0.234230 3.257966
-0.424225 0.233478 3.275257
-0.423924 0.267918 2.759795
-0.424474 0.265934 2.768627
-0.423776 0.298691 2.758526
-0.425182 0.300989 2.768627
-0.423623 0.330300 2.755804
-0.413910 0.327529 2.768627
-0.423288 0.360859 2.755297
-0.409757 0.361306 2.768627
-0.424040 0.392297 2.757766
-0.416876 0.387608 2.768627
-0.423802 0.424742 2.761800
-0.431906 0.418616 2.768627
-0.423271 0.456469 2.762745
-0.433919 0.450028 2.768627
-0.424081 0.480718 2.762745
-0.393273 -0.357101 2.594591
-0.386541 -0.347365 2.611765
-0.382179 -0.316046 2.576471
-0.393135 -0.332096 2.601640
-0.400713 -0.330499 2.614146
-0.381893 -0.285197 2.448039
-0.387971 -0.287875 2.471079
-0.392626 -0.291985 2.498600
-0.394447 -0.298823 2.530196
-0.393323 -0.307444 2.560071
-0.403458 -0.309617 2.586275
-0.381059 -0.257912 2.323529
-0.384414 -0.256597 2.341177
-0.388756 -0.259166 2.368347
-0.390360 -0.271716 2.407563
-0.397446 -0.275973 2.442157
-0.402488 -0.278186 2.461765
-0.387106 -0.259591 2.508497
-0.389100 -0.256857 2.543137
-0.390772 -0.254818 2.565360
-0.402537 -0.258411 2.597059
-0.390340 -0.257143 2.624020
-0.386860 -0.262937 2.655882
-0.388345 -0.261477 2.686492
-0.393239 -0.262843 2.716667
-0.394234 -0.261190 2.746188
-0.404259 -0.264109 2.786078
-0.407422 -0.266931 2.809804
-0.384778 -0.253075 3.034510
-0.379694 -0.255167 3.062092
-0.377482 -0.253718 3.094118
-0.386831 -0.252688 3.119608
-0.386391 -0.256750 3.161961
-0.390628 -0.256688 3.188726
-0.392290 -0.258406 3.226078
-0.399130 -0.256842 3.261520
-0.389809 -0.257529 3.283614
-0.381853 -0.224300 2.188235
-0.386935 -0.225450 2.216527
-0.382628 -0.232266 2.244118
-0.394874 -0.233496 2.278105
-0.391383 -0.242004 2.310873
-0.397479 -0.242961 2.341177
-0.387833 -0.232701 2.371148
-0.394243 -0.221161 2.403922
-0.379126 -0.234071 2.438235
-0.394637 -0.228934 2.479412
-0.394692 -0.238998 2.496613
-0.395303 -0.241335 2.531373
-0.407647 -0.251471 2.647059
-0.381746 -0.243580 2.691503
-0.385066 -0.238964 2.718137
-0.391717 -0.238558 2.748880
-0.395376 -0.236780 2.782250
-0.397259 -0.236442 2.811569
-0.391927 -0.236183 2.842157
-0.395030 -0.237808 2.878186
-0.398964 -0.236136 2.907407
-0.399341 -0.238590 2.942246
-0.394863 -0.242740 2.966845
-0.391055 -0.244433 3.002288
-0.398532 -0.242982 3.031523
-0.397708 -0.244149 3.071078
-0.394640 -0.247951 3.099347
-0.399997 -0.249413 3.137255
-0.394371 -0.227873 3.165098
-0.390206 -0.229089 3.194275
-0.392556 -0.234833 3.224183
-0.392059 -0.243935 3.252406
-0.402722 -0.248013 3.281793
-0.381393 -0.199111 2.103268
-0.391163 -0.200132 2.129055
-0.389734 -0.205056 2.155053
-0.397330 -0.206196 2.185839
-0.399474 -0.216987 2.225490
-0.397496 -0.207475 2.249020
-0.387240 -0.201051 2.316078
-0.388123 -0.200114 2.345098
-0.392118 -0.202980 2.369281
-0.396815 -0.209828 2.404902
-0.402792 -0.202610 2.426471
-0.404693 -0.212218 2.467647
-0.408714 -0.219310 2.492157
-0.382789 -0.192914 3.041457
-0.390608 -0.196057 3.063480
-0.389895 -0.203557 3.097759
-0.392928 -0.207757 3.128627
-0.400474 -0.213823 3.163725
-0.403636 -0.216509 3.193333
-0.404435 -0.218267 3.209804
-0.379032 -0.166656 2.032353
-0.384543 -0.170878 2.064706
-0.389140 -0.174699 2.092157
-0.400118 -0.175710 2.125708
-0.403659 -0.182122 2.150981
-0.407557 -0.185751 2.185294
-0.383088 -0.164826 2.273530
-0.381733 -0.179125 2.302353
-0.390957 -0.171308 2.346667
-0.396599 -0.176019 2.378431
-0.397766 -0.170534 2.401961
-0.400030 -0.178059 2.439216
-0.405561 -0.164521 2.467974
-0.403031 -0.168559 2.503268
-0.401480 -0.166166 2.530392
-0.401012 -0.164518 2.570588
-0.396392 -0.159078 2.607843
-0.400500 -0.162294 2.617647
-0.397941 -0.159176 2.652941
-0.399600 -0.159300 2.700000
-0.399926 -0.158875 2.739216
-0.402918 -0.159488 2.798039
-0.398394 -0.158227 2.825490
-0.399412 -0.159765 2.852941
-0.397845 -0.160863 2.872549
-0.388460 -0.160718 2.914566
-0.389538 -0.163681 2.933333
-0.393969 -0.169183 2.973333
-0.393360 -0.175771 3.004482
-0.394527 -0.182663 3.030570
-0.406737 -0.185531 3.058170
-0.377843 -0.142696 2.009804
-0.379963 -0.148040 2.021078
-0.384998 -0.134506 2.058824
-0.392061 -0.139902 2.092811
-0.397998 -0.140347 2.121849
-0.402882 -0.137262 2.150654
-0.404275 -0.132582 2.173530
-0.408430 -0.127287 2.213726
-0.379188 -0.156671 2.270588
-0.381118 -0.152447 2.309804
-0.382458 -0.150876 2.339216
-0.380950 -0.147426 2.358824
-0.386945 -0.146941 2.449019
-0.379081 -0.145721 2.469608
-0.389485 -0.148995 2.500000
-0.377647 -0.148541 2.517647
-0.389221 -0.148517 2.560784
-0.396175 -0.149373 2.598039
-0.386529 -0.144579 2.621849
-0.396810 -0.146136 2.657516
-0.393159 -0.148232 2.685490
-0.389175 -0.148789 2.721569
-0.394452 -0.149819 2.749020
-0.389033 -0.153566 2.792157
-0.384533 -0.152682 2.827451
-0.384151 -0.154373 2.845588
-0.377618 -0.110224 2.041177
-0.379775 -0.123143 2.069608
-0.381788 -0.106400 2.086274
-0.389201 -0.114499 2.126797
-0.387848 -0.113400 2.151885
-0.391466 -0.113334 2.186988
-0.394837 -0.113252 2.214566
-0.403278 -0.117078 2.248115
-0.397002 -0.107261 2.268628
-0.401096 -0.097094 2.311765
-0.406110 -0.099584 2.333987
-0.379358 -0.086380 2.226275
-0.382007 -0.085695 2.248584
-0.391355 -0.086564 2.278151
-0.390193 -0.077778 2.310349
-0.392426 -0.073819 2.343750
-0.399150 -0.072565 2.375936
-0.401177 -0.068266 2.409477
-0.404179 -0.065327 2.442157
-0.379762 -0.060524 2.373530
-0.386633 -0.060097 2.403922
-0.387089 -0.055800 2.437909
-0.395213 -0.056150 2.468137
-0.392762 -0.050718 2.501604
-0.390353 -0.046220 2.527731
-0.392168 -0.043282 2.560250
-0.393223 -0.039937 2.593922
-0.396810 -0.037741 2.625735
-0.399309 -0.035411 2.656209
-0.403520 -0.033623 2.690196
-0.408529 -0.032682 2.723530
-0.378671 -0.030132 2.620588
-0.384646 -0.028361 2.658824
-0.384238 -0.024178 2.687010
-0.391588 -0.023261 2.719390
-0.392320 -0.017348 2.755098
-0.390339 -0.010996 2.784118
-0.396645 -0.009383 2.814706
-0.402367 -0.004543 2.841569
-0.382524 0.000707 2.823039
-0.390443 0.006257 2.851508
-0.394696 0.018568 2.869862
-0.392268 0.045982 2.873708
-0.392867 0.077917 2.872143
-0.388800 0.108635 2.858824
-0.391940 0.107550 2.872468
-0.404450 0.122608 2.905490
-0.383704 0.132216 2.874153
-0.389710 0.140895 2.908279
-0.396481 0.143690 2.939706
-0.400026 0.148545 2.970588
-0.382024 0.160776 2.950000
-0.384697 0.163378 2.970588
-0.388032 0.171848 3.002832
-0.399347 0.175473 3.040196
-0.392728 0.184089 3.068137
-0.401694 0.180122 3.097285
-0.402676 0.185217 3.121569
-0.394066 0.212953 2.669048
-0.399597 0.211449 2.685389
-0.396116 0.211766 2.718182
-0.398417 0.212489 2.747712
-0.394839 0.213948 2.783088
-0.399131 0.208458 2.817320
-0.399321 0.215335 2.848235
-0.404200 0.209267 2.866667
-0.405317 0.218022 2.926471
-0.383592 0.194072 3.032353
-0.386373 0.196442 3.063480
-0.392090 0.198160 3.096324
-0.391016 0.200004 3.125000
-0.401274 0.209796 3.159608
-0.400082 0.216488 3.183660
-0.384770 0.223681 2.669935
-0.388521 0.229825 2.689786
-0.395832 0.241242 2.724129
-0.393966 0.233744 2.750490
-0.386446 0.227603 2.786928
-0.390452 0.229048 2.819118
-0.387538 0.230309 2.847277
-0.396060 0.233307 2.880392
-0.392724 0.234461 2.909020
-0.390822 0.239120 2.941737
-0.397843 0.239181 2.971176
-0.397287 0.242839 3.001426
-0.397207 0.241165 3.039869
-0.397882 0.243347 3.060784
-0.402750 0.244740 3.098039
-0.404207 0.247526 3.133333
-0.388355 0.228975 3.162353
-0.389672 0.228148 3.198366
-0.393610 0.236073 3.230467
-0.398055 0.244727 3.260309
-0.383151 0.258563 2.727083
-0.395341 0.270448 2.758085
-0.392397 0.270829 2.769216
-0.382098 0.252773 2.939216
-0.382101 0.257208 2.973530
-0.385508 0.256996 3.000000
-0.383188 0.252418 3.041177
-0.387910 0.255503 3.097059
-0.386848 0.259769 3.129804
-0.391623 0.260303 3.164706
-0.392997 0.261395 3.192157
-0.391635 0.263731 3.222323
-0.390577 0.261547 3.256727
-0.387846 0.259266 3.272969
-0.392119 0.298358 2.762356
-0.401451 0.312855 2.768627
-0.393043 0.329572 2.762599
-0.385877 0.337426 2.768627
-0.392310 0.361920 2.762745
-0.380686 0.346078 2.768627
-0.392310 0.392310 2.762745
-0.392864 0.423571 2.761998
-0.379033 0.429660 2.774265
-0.395823 0.453907 2.761609
-0.383740 0.461309 2.773277
-0.401949 0.480681 2.762535
-0.387893 0.482109 2.771069
-0.361944 -0.358010 2.598073
-0.363325 -0.352588 2.611765
-0.356260 -0.316472 2.538562
-0.361132 -0.321486 2.568015
-0.362665 -0.336509 2.601064
-0.348396 -0.286353 2.386275
-0.357095 -0.288321 2.412745
-0.360829 -0.293059 2.442157
-0.362034 -0.298611 2.471242
-0.361041 -0.305320 2.499720
-0.366391 -0.309532 2.526797
-0.369892 -0.313771 2.550981
-0.354641 -0.253742 2.258824
-0.353175 -0.259426 2.275686
-0.362821 -0.263615 2.320098
-0.359542 -0.267417 2.343726
-0.362131 -0.270048 2.370437
-0.357339 -0.259256 2.411765
-0.362238 -0.256108 2.439216
-0.357057 -0.255304 2.464986
-0.358873 -0.256920 2.499216
-0.348622 -0.262028 2.538562
-0.355657 -0.260023 2.562539
-0.361025 -0.263499 2.593530
-0.367570 -0.258043 2.625490
-0.374986 -0.259296 2.659477
-0.357180 -0.252028 2.880392
-0.355798 -0.254980 2.908497
-0.360605 -0.256111 2.943791
-0.358939 -0.255267 2.972549
-0.357655 -0.258032 3.000392
-0.360775 -0.259827 3.035948
-0.361330 -0.262056 3.062092
-0.360216 -0.260836 3.105229
-0.360713 -0.263473 3.136601
-0.357785 -0.266748 3.166176
-0.356334 -0.264471 3.196078
-0.361384 -0.264035 3.226634
-0.361682 -0.263824 3.261656
-0.362165 -0.268158 3.285994
-0.346912 -0.274225 3.303921
-0.350530 -0.224598 2.099020
-0.355320 -0.225154 2.122004
-0.359128 -0.228741 2.158039
-0.361405 -0.232903 2.185839
-0.359346 -0.237139 2.214439
-0.365328 -0.244035 2.251716
-0.360958 -0.237124 2.275882
-0.357222 -0.233462 2.306318
-0.360449 -0.233640 2.342402
-0.352632 -0.242188 2.366667
-0.363126 -0.243983 2.406863
-0.369299 -0.245375 2.439216
-0.368229 -0.247124 2.471242
-0.371741 -0.248665 2.511765
-0.349581 -0.246650 2.566667
-0.354720 -0.242805 2.596182
-0.360264 -0.240045 2.626891
-0.365634 -0.239845 2.659118
-0.364422 -0.236551 2.688095
-0.363042 -0.237946 2.719412
-0.360937 -0.240707 2.755259
-0.356247 -0.244734 2.787451
-0.362471 -0.244451 2.809804
-0.362116 -0.247099 2.840196
-0.369365 -0.247210 2.874510
-0.374056 -0.248080 2.907190
-0.366630 -0.248856 2.945098
-0.369831 -0.247050 2.970588
-0.372490 -0.248326 3.003922
-0.376863 -0.249216 3.039216
-0.355854 -0.222209 3.107843
-0.357880 -0.225032 3.125490
-0.361474 -0.228867 3.156863
-0.364018 -0.239486 3.196970
-0.359764 -0.245037 3.221786
-0.373412 -0.250024 3.247059
-0.351037 -0.191556 2.005882
-0.352601 -0.196066 2.026471
-0.360929 -0.197668 2.059314
-0.360741 -0.206972 2.093333
-0.362657 -0.208795 2.124370
-0.359281 -0.208592 2.156128
-0.364668 -0.198213 2.190196
-0.359040 -0.210678 2.225490
-0.364444 -0.205388 2.249608
-0.366931 -0.207676 2.281961
-0.367573 -0.212680 2.311765
-0.370065 -0.214125 2.327451
-0.349037 -0.191610 2.970588
-0.356722 -0.193751 3.003922
-0.361023 -0.201213 3.034641
-0.364392 -0.208520 3.056427
-0.365765 -0.215382 3.094510
-0.372867 -0.219333 3.133333
-0.347578 -0.160182 1.899346
-0.352812 -0.167832 1.937255
-0.358626 -0.169965 1.965033
-0.366237 -0.171430 1.996639
-0.366055 -0.175657 2.022409
-0.353091 -0.171408 2.060000
-0.354949 -0.180102 2.094118
-0.360833 -0.167667 2.122549
-0.362505 -0.171000 2.151471
-0.366860 -0.170630 2.187647
-0.371720 -0.175581 2.214566
-0.371088 -0.171358 2.249020
-0.374852 -0.177537 2.276471
-0.374404 -0.158133 2.325490
-0.353917 -0.161761 2.879956
-0.361133 -0.168879 2.909477
-0.363168 -0.176808 2.942647
-0.366968 -0.182271 2.974688
-0.373459 -0.186729 3.011765
-0.348371 -0.141709 1.883088
-0.353071 -0.138026 1.901634
-0.361092 -0.141519 1.938726
-0.367560 -0.142297 1.967320
-0.371535 -0.132473 1.992157
-0.376602 -0.130914 2.022059
-0.350192 -0.151984 2.053922
-0.350852 -0.143893 2.085294
-0.351979 -0.139006 2.125490
-0.354946 -0.146729 2.157843
-0.362060 -0.150585 2.189020
-0.357951 -0.140849 2.218137
-0.362585 -0.143899 2.242811
-0.358605 -0.138561 2.280392
-0.357871 -0.136225 2.308824
-0.365766 -0.145370 2.344706
-0.364330 -0.136088 2.377451
-0.364160 -0.138114 2.409150
-0.356233 -0.131771 2.440196
-0.371604 -0.144186 2.471896
-0.362449 -0.134977 2.499673
-0.357385 -0.132438 2.534804
-0.364729 -0.136901 2.554118
-0.365463 -0.137048 2.595686
-0.362854 -0.136726 2.629412
-0.362831 -0.140707 2.654902
-0.362442 -0.141473 2.694608
-0.355165 -0.140161 2.721569
-0.362605 -0.143532 2.747059
-0.358781 -0.144389 2.784314
-0.356054 -0.145895 2.814706
-0.357664 -0.150182 2.845098
-0.361515 -0.154935 2.869162
-0.349705 -0.122659 1.904706
-0.351624 -0.114347 1.938095
-0.355990 -0.114597 1.967974
-0.359972 -0.111086 1.999822
-0.362783 -0.110091 2.030501
-0.360451 -0.103659 2.061345
-0.364842 -0.105460 2.088432
-0.367737 -0.103398 2.121079
-0.374067 -0.103982 2.157255
-0.375851 -0.095592 2.172549
-0.348300 -0.125206 2.276471
-0.350261 -0.125259 2.319608
-0.351687 -0.124054 2.408824
-0.348767 -0.122439 2.473529
-0.354396 -0.125382 2.558824
-0.347973 -0.091880 1.954902
-0.349041 -0.091853 2.041177
-0.349475 -0.092779 2.061765
-0.350387 -0.082065 2.131618
-0.353453 -0.077886 2.152819
-0.362051 -0.079726 2.185593
-0.364679 -0.075928 2.214314
-0.363347 -0.068068 2.252070
-0.368197 -0.067114 2.275163
-0.374812 -0.067086 2.313726
-0.348353 -0.060485 2.240196
-0.352142 -0.057930 2.278151
-0.356827 -0.057064 2.305882
-0.361626 -0.055290 2.340686
-0.364195 -0.052282 2.376471
-0.361944 -0.047680 2.405421
-0.363007 -0.044152 2.439608
-0.362959 -0.040738 2.469118
-0.360680 -0.036533 2.498284
-0.367645 -0.036112 2.528011
-0.371692 -0.034176 2.563399
-0.346624 -0.030141 2.511765
-0.351109 -0.029539 2.532026
-0.356524 -0.028687 2.561177
-0.359692 -0.026336 2.590850
-0.361161 -0.022847 2.626667
-0.360885 -0.019167 2.657843
-0.360638 -0.014877 2.686727
-0.362807 -0.011315 2.717810
-0.361651 -0.006190 2.751961
-0.369098 -0.004170 2.780392
-0.356328 0.002209 2.758039
-0.358086 0.001498 2.782504
-0.362257 0.006263 2.817865
-0.362913 0.014718 2.848700
-0.361686 0.024246 2.866243
-0.353065 0.034306 2.858824
-0.362392 0.046581 2.872157
-0.361947 0.077560 2.872598
-0.367689 0.114793 2.858824
-0.361062 0.108369 2.871434
-0.371647 0.130076 2.858824
-0.359897 0.139435 2.867124
-0.372082 0.154407 2.902353
-0.351379 0.162749 2.877206
-0.358965 0.168449 2.907451
-0.362753 0.174160 2.940121
-0.366228 0.178668 2.967843
-0.370253 0.183113 3.001961
-0.375585 0.187032 3.041177
-0.348678 0.189114 2.954902
-0.351459 0.192107 2.978431
-0.361705 0.203461 3.014216
-0.361082 0.206219 3.032721
-0.363860 0.207594 3.064093
-0.367812 0.210251 3.099510
-0.367394 0.212756 3.124118
-0.362370 0.239423 2.666810
-0.364594 0.239562 2.685470
-0.364193 0.237961 2.719608
-0.366536 0.238323 2.752941
-0.362255 0.237604 2.786631
-0.364802 0.237753 2.812121
-0.363275 0.240911 2.845425
-0.369031 0.244871 2.874118
-0.371351 0.244969 2.916340
-0.371824 0.247882 2.950981
-0.376767 0.246233 2.966667
-0.348382 0.221147 3.029412
-0.350309 0.225362 3.066177
-0.353183 0.227614 3.105882
-0.357403 0.228149 3.129608
-0.363191 0.236583 3.154342
-0.365617 0.243613 3.191503
-0.369155 0.249860 3.224020
-0.347049 0.254948 2.669608
-0.355084 0.259478 2.693464
-0.363094 0.268595 2.721702
-0.366414 0.273907 2.745956
-0.356459 0.263854 2.777778
-0.352616 0.255702 2.809804
-0.355699 0.258976 2.845752
-0.356045 0.258282 2.875163
-0.359625 0.262740 2.909608
-0.363191 0.258885 2.937745
-0.362259 0.266748 2.975936
-0.361945 0.268639 3.001634
-0.364895 0.267842 3.032353
-0.360080 0.270682 3.061961
-0.363024 0.272382 3.095238
-0.368472 0.272418 3.131372
-0.368000 0.275870 3.158823
-0.359915 0.267131 3.199346
-0.363331 0.269315 3.227941
-0.363851 0.271478 3.257703
-0.364889 0.272557 3.272549
-0.350106 0.284662 2.726667
-0.365150 0.296273 2.760151
-0.359691 0.305670 2.771629
-0.347527 0.284431 3.004575
-0.350055 0.284420 3.125490
-0.352156 0.286614 3.158333
-0.354806 0.287682 3.196471
-0.354319 0.288942 3.228431
-0.353317 0.287679 3.258543
-0.348841 0.284968 3.275490
-0.370376 0.332086 2.761614
-0.355806 0.329177 2.771475
-0.366989 0.362775 2.762242
-0.352656 0.359190 2.771744
-0.367348 0.390093 2.762010
-0.354012 0.396618 2.772549
-0.366270 0.411714 2.763181
-0.360908 0.424683 2.770836
-0.363835 0.458941 2.764706
-0.362072 0.455715 2.770945
-0.361745 0.482183 2.770588
-0.330452 -0.357897 2.600853
-0.326732 -0.359379 2.611765
-0.316988 -0.314512 2.476471
-0.324581 -0.318308 2.506373
-0.326605 -0.323449 2.531863
-0.331504 -0.330007 2.565167
-0.333233 -0.340487 2.596194
-0.323243 -0.283710 2.325490
-0.319733 -0.289171 2.350980
-0.327574 -0.288876 2.376190
-0.324662 -0.295102 2.404762
-0.328116 -0.303293 2.434118
-0.331902 -0.304073 2.466387
-0.342500 -0.312500 2.500000
-0.322304 -0.283627 2.578431
-0.319330 -0.286084 2.596078
-0.331579 -0.285320 2.617647
-0.319365 -0.283518 3.258824
-0.320541 -0.258324 2.195425
-0.334192 -0.255890 2.219608
-0.326880 -0.262289 2.251373
-0.327730 -0.269885 2.279902
-0.329708 -0.266607 2.310709
-0.332164 -0.266920 2.343791
-0.331513 -0.273071 2.372549
-0.326256 -0.267620 2.405637
-0.329235 -0.268287 2.438824
-0.325211 -0.276752 2.463726
-0.323616 -0.258652 2.502179
-0.333697 -0.262188 2.530597
-0.330184 -0.275963 2.568410
-0.335643 -0.279484 2.591830
-0.337424 -0.282494 2.615686
-0.318654 -0.252729 2.747059
-0.323309 -0.253820 2.779085
-0.328676 -0.254695 2.809150
-0.330396 -0.256916 2.844118
-0.330042 -0.259671 2.880672
-0.334667 -0.261201 2.910294
-0.333068 -0.261766 2.941176
-0.331801 -0.261405 2.967380
-0.331160 -0.264168 3.006723
-0.328106 -0.268314 3.030303
-0.335429 -0.269948 3.063235
-0.327031 -0.269240 3.094771
-0.330745 -0.271271 3.130066
-0.332298 -0.273746 3.164706
-0.330572 -0.268710 3.199020
-0.330009 -0.261766 3.225174
-0.330277 -0.269235 3.252941
-0.330202 -0.277145 3.284314
-0.317549 -0.228232 2.062092
-0.329943 -0.228343 2.094902
-0.328903 -0.233094 2.114631
-0.330073 -0.238895 2.153403
-0.330529 -0.236539 2.192647
-0.330589 -0.236656 2.218736
-0.328573 -0.236270 2.246346
-0.330499 -0.239997 2.279216
-0.335259 -0.239913 2.306863
-0.337176 -0.242974 2.341667
-0.340266 -0.248551 2.367157
-0.324276 -0.250715 2.507190
-0.328746 -0.248251 2.531440
-0.332178 -0.244691 2.560974
-0.329265 -0.243258 2.593705
-0.333465 -0.242259 2.624387
-0.329958 -0.244142 2.659002
-0.331717 -0.245640 2.689543
-0.329632 -0.247665 2.716667
-0.334062 -0.248831 2.749510
-0.337931 -0.250324 2.781373
-0.344679 -0.250422 2.813726
-0.322233 -0.222922 3.039869
-0.330738 -0.226114 3.065931
-0.330820 -0.231652 3.099020
-0.332720 -0.236250 3.129085
-0.326295 -0.243345 3.160294
-0.333107 -0.245461 3.187745
-0.340530 -0.249558 3.220098
-0.317133 -0.189774 1.910458
-0.320092 -0.192672 1.930588
-0.323593 -0.196859 1.963627
-0.324219 -0.201690 1.996078
-0.327876 -0.206803 2.024837
-0.329872 -0.210998 2.057407
-0.332237 -0.209630 2.092157
-0.336425 -0.213316 2.122549
-0.342902 -0.212171 2.143137
-0.315245 -0.190882 2.892157
-0.322879 -0.190530 2.908824
-0.327656 -0.195294 2.941177
-0.327626 -0.201602 2.969499
-0.331649 -0.205610 3.001471
-0.333947 -0.213975 3.035976
-0.332701 -0.218747 3.052288
-0.325671 -0.161084 1.848194
-0.326329 -0.168415 1.871278
-0.327247 -0.176701 1.904210
-0.330940 -0.178026 1.932789
-0.336319 -0.173075 1.964706
-0.339333 -0.172898 1.993137
-0.340969 -0.182110 2.023529
-0.322963 -0.165352 2.850840
-0.331593 -0.172625 2.874557
-0.336337 -0.181538 2.904510
-0.341002 -0.187001 2.933333
-0.329440 -0.139688 1.841777
-0.333602 -0.142171 1.867974
-0.328187 -0.142032 1.906209
-0.330353 -0.139122 1.929412
-0.335516 -0.143458 1.964951
-0.337940 -0.139490 1.992549
-0.339356 -0.136248 2.025210
-0.344478 -0.136141 2.062745
-0.342947 -0.128471 2.123530
-0.341488 -0.139603 2.147712
-0.341805 -0.132810 2.177124
-0.338541 -0.131738 2.207843
-0.337139 -0.129925 2.240196
-0.336744 -0.128122 2.267647
-0.345294 -0.133514 2.301961
-0.341084 -0.129091 2.368628
-0.338776 -0.127655 2.454902
-0.340070 -0.129252 2.509804
-0.331353 -0.126471 2.529412
-0.341888 -0.131100 2.570588
-0.339580 -0.130908 2.592157
-0.332337 -0.128903 2.630719
-0.334765 -0.130186 2.656863
-0.332058 -0.130854 2.688889
-0.328714 -0.131669 2.724183
-0.327252 -0.133045 2.752723
-0.328923 -0.136589 2.787522
-0.328616 -0.140342 2.819759
-0.329472 -0.150429 2.844627
-0.323265 -0.118212 1.842229
-0.327337 -0.112811 1.869457
-0.326680 -0.106546 1.900145
-0.330017 -0.107589 1.932301
-0.330125 -0.108746 1.966807
-0.333617 -0.103605 1.997759
-0.331976 -0.110848 2.028922
-0.330944 -0.108949 2.055556
-0.328946 -0.118386 2.095098
-0.325212 -0.115091 2.111765
-0.327824 -0.115379 2.156863
-0.326967 -0.116658 2.190686
-0.334944 -0.123804 2.210784
-0.325646 -0.116573 2.245811
-0.320929 -0.116484 2.284314
-0.335155 -0.117884 2.311438
-0.324349 -0.117910 2.350327
-0.331604 -0.118057 2.377124
-0.326292 -0.119234 2.416993
-0.323509 -0.113552 2.447059
-0.333696 -0.120536 2.474510
-0.324606 -0.116045 2.500784
-0.341343 -0.120103 2.528431
-0.323820 -0.124152 2.559804
-0.318967 -0.123179 2.593137
-0.316498 -0.122937 2.615686
-0.317488 -0.124873 2.656863
-0.320010 -0.083677 1.839216
-0.329730 -0.087888 1.869935
-0.325901 -0.087197 1.903529
-0.326328 -0.089260 1.935294
-0.321579 -0.085151 1.969468
-0.328686 -0.086189 1.997110
-0.337591 -0.088784 2.028323
-0.319933 -0.072637 2.060784
-0.326184 -0.071432 2.090824
-0.334569 -0.071390 2.122371
-0.338940 -0.067473 2.151337
-0.341388 -0.064351 2.181373
-0.317775 -0.060508 2.123203
-0.323194 -0.058910 2.151282
-0.324086 -0.055104 2.186863
-0.332748 -0.055747 2.218431
-0.329444 -0.051375 2.244445
-0.329813 -0.047872 2.279848
-0.331343 -0.044624 2.315686
-0.329774 -0.041220 2.342157
-0.328650 -0.038209 2.372113
-0.333750 -0.037033 2.402614
-0.336546 -0.034353 2.434859
-0.339041 -0.032834 2.462745
-0.345865 -0.032347 2.488235
-0.317835 -0.031302 2.407843
-0.319262 -0.028467 2.440196
-0.326073 -0.027668 2.470196
-0.328423 -0.025663 2.498396
-0.329898 -0.022974 2.529575
-0.331510 -0.019995 2.563922
-0.329520 -0.016593 2.592549
-0.328031 -0.012518 2.625943
-0.331275 -0.009517 2.657353
-0.331082 -0.005863 2.687701
-0.337201 -0.003884 2.719328
-0.342892 -0.002743 2.743137
-0.316359 0.000000 2.703922
-0.322704 0.000908 2.723203
-0.331171 0.006199 2.755098
-0.330148 0.008116 2.783088
-0.326624 0.014080 2.814006
-0.332129 0.022345 2.849715
-0.332105 0.027516 2.866275
-0.336116 0.034714 2.858824
-0.329857 0.046647 2.871156
-0.330331 0.077559 2.872500
-0.344488 0.125788 2.858824
-0.330380 0.109169 2.872889
-0.329424 0.141182 2.858824
-0.329853 0.140485 2.868827
-0.323047 0.162953 2.858824
-0.328157 0.169936 2.869691
-0.339540 0.182569 2.907059
-0.342512 0.187357 2.927451
-0.317438 0.191906 2.885784
-0.325305 0.195008 2.914902
-0.327178 0.200972 2.942353
-0.329477 0.205672 2.968347
-0.335291 0.209829 2.997479
-0.336586 0.213786 3.032353
-0.339965 0.217455 3.062745
-0.343616 0.249057 2.663726
-0.342197 0.249275 2.680392
-0.345141 0.250024 2.717647
-0.336686 0.248325 2.790196
-0.338824 0.251294 2.823529
-0.327559 0.226078 3.014379
-0.326121 0.231799 3.031257
-0.329622 0.233365 3.063889
-0.329480 0.237262 3.097924
-0.331230 0.238651 3.124755
-0.342816 0.248463 3.145098
-0.330176 0.262404 2.666013
-0.330012 0.267719 2.683864
-0.332244 0.268798 2.715241
-0.328097 0.265691 2.753268
-0.328893 0.264144 2.783066
-0.327897 0.265751 2.812157
-0.327876 0.270530 2.842810
-0.336201 0.272491 2.877031
-0.330333 0.273675 2.906209
-0.337740 0.275315 2.933333
-0.334638 0.276626 2.974510
-0.338488 0.278319 3.008824
-0.342369 0.281231 3.056863
-0.315800 0.253878 3.096078
-0.322473 0.256714 3.130719
-0.327948 0.259278 3.157108
-0.329444 0.267082 3.198529
-0.331258 0.274111 3.230618
-0.337618 0.278743 3.252549
-0.319448 0.285682 2.701471
-0.327766 0.293587 2.726471
-0.332447 0.300860 2.749978
-0.337067 0.311122 2.771123
-0.321057 0.286499 2.879412
-0.327467 0.286637 2.915033
-0.327961 0.289691 2.941177
-0.324256 0.292121 2.965686
-0.329261 0.291762 3.001569
-0.327065 0.297537 3.028431
-0.334215 0.287346 3.056863
-0.332500 0.293088 3.099160
-0.328495 0.298954 3.132773
-0.330343 0.300510 3.163305
-0.332480 0.301934 3.196950
-0.330366 0.302064 3.227682
-0.328593 0.297454 3.258156
-0.328422 0.294459 3.274020
-0.329692 0.326651 2.764314
-0.330255 0.331472 2.774815
-0.315155 0.315155 3.249020
-0.338216 0.363328 2.764706
-0.330124 0.361538 2.776061
-0.339664 0.386664 2.764706
-0.329865 0.392979 2.775100
-0.338216 0.424152 2.764706
-0.329720 0.424744 2.777217
-0.337755 0.458941 2.764706
-0.329380 0.455897 2.777153
-0.327848 0.477373 2.764706
-0.329542 0.482140 2.771625
-0.299075 -0.359595 2.602082
-0.298612 -0.363035 2.611765
-0.295305 -0.319664 2.472549
-0.293570 -0.325436 2.498530
-0.300924 -0.330580 2.533137
-0.297033 -0.340292 2.569281
-0.308899 -0.343893 2.592157
-0.293396 -0.286520 2.292157
-0.298296 -0.286174 2.307843
-0.297061 -0.291588 2.343137
-0.297732 -0.293304 2.375556
-0.296182 -0.298099 2.405322
-0.296835 -0.297356 2.441177
-0.301279 -0.295108 2.467157
-0.301503 -0.291536 2.491765
-0.291235 -0.286156 2.532353
-0.301524 -0.286159 2.558824
-0.308779 -0.288089 2.587582
-0.283924 -0.283924 3.052941
-0.295362 -0.284189 3.193137
-0.298841 -0.285918 3.230719
-0.290750 -0.286688 3.257843
-0.301160 -0.285431 3.277059
-0.292445 -0.252471 2.103921
-0.295190 -0.255242 2.123529
-0.298628 -0.259467 2.156209
-0.298752 -0.256749 2.191340
-0.295833 -0.261473 2.219686
-0.294849 -0.266743 2.248137
-0.297923 -0.266718 2.275490
-0.300545 -0.271151 2.309543
-0.301122 -0.269499 2.343464
-0.298140 -0.271730 2.371709
-0.305473 -0.273187 2.405322
-0.289260 -0.263456 2.444445
-0.297093 -0.260021 2.470228
-0.303175 -0.263987 2.496851
-0.305084 -0.277890 2.529167
-0.305882 -0.280392 2.549019
-0.288635 -0.253892 2.672549
-0.285153 -0.255569 2.690196
-0.299293 -0.253825 2.714706
-0.291343 -0.258319 2.752941
-0.299477 -0.257745 2.782353
-0.298387 -0.259067 2.808333
-0.293334 -0.263447 2.848040
-0.291903 -0.266029 2.875980
-0.305785 -0.263655 2.905392
-0.301918 -0.264454 2.938399
-0.293638 -0.271610 2.966106
-0.297161 -0.272423 3.001797
-0.299356 -0.274808 3.033137
-0.291367 -0.277370 3.062465
-0.299875 -0.276071 3.101961
-0.298706 -0.277875 3.122222
-0.296399 -0.267433 3.158824
-0.299469 -0.261694 3.191503
-0.299474 -0.268029 3.225140
-0.298730 -0.272740 3.249580
-0.307448 -0.281210 3.279412
-0.307051 -0.221360 2.040196
-0.308706 -0.225514 2.060662
-0.303858 -0.235043 2.089118
-0.303487 -0.237713 2.118473
-0.302844 -0.240858 2.154813
-0.297308 -0.245692 2.177031
-0.301317 -0.243333 2.217927
-0.305057 -0.244492 2.243137
-0.305218 -0.248061 2.286275
-0.307216 -0.250608 2.309804
-0.284569 -0.249926 2.474510
-0.297557 -0.250085 2.497924
-0.299952 -0.248321 2.530824
-0.302253 -0.246991 2.563943
-0.301058 -0.246949 2.599465
-0.299893 -0.247275 2.630588
-0.302096 -0.249100 2.650000
-0.306064 -0.250431 2.692811
-0.287066 -0.223188 3.005882
-0.300594 -0.227701 3.037473
-0.297104 -0.234779 3.059893
-0.298008 -0.242291 3.094958
-0.299591 -0.247187 3.128922
-0.306026 -0.249237 3.154902
-0.311871 -0.251406 3.182353
-0.313375 -0.191667 1.916667
-0.313529 -0.194871 1.929412
-0.312762 -0.210409 2.000654
-0.311646 -0.217237 2.028105
-0.313024 -0.217200 2.129412
-0.293802 -0.193155 2.875654
-0.301422 -0.198394 2.905882
-0.298649 -0.206748 2.939477
-0.298494 -0.212857 2.968067
-0.302395 -0.216858 3.001471
-0.311424 -0.217694 3.023529
-0.314353 -0.184471 1.882353
-0.313824 -0.188294 1.901961
-0.291114 -0.162203 2.824370
-0.298975 -0.172185 2.844348
-0.306400 -0.184201 2.866912
-0.301898 -0.126831 2.757190
-0.295541 -0.133614 2.790196
-0.298521 -0.144006 2.814178
-0.305912 -0.152529 2.835098
-0.305550 -0.103552 1.844745
-0.304772 -0.102531 1.866282
-0.301517 -0.102567 1.899346
-0.300656 -0.102960 1.933497
-0.300376 -0.102218 1.965882
-0.302141 -0.102844 1.992941
-0.299653 -0.100680 2.026797
-0.301743 -0.101544 2.063922
-0.299929 -0.100676 2.097386
-0.308391 -0.104216 2.126797
-0.295224 -0.100750 2.154902
-0.298166 -0.103769 2.187146
-0.301576 -0.107308 2.220261
-0.295915 -0.101182 2.248628
-0.297643 -0.106069 2.281046
-0.299232 -0.104948 2.312990
-0.295904 -0.104746 2.345425
-0.303045 -0.106946 2.376797
-0.298637 -0.107576 2.411029
-0.303338 -0.109132 2.440616
-0.296325 -0.105300 2.470890
-0.300493 -0.108004 2.500000
-0.302329 -0.115696 2.533333
-0.299287 -0.115440 2.565360
-0.299450 -0.116501 2.588889
-0.301018 -0.118303 2.628922
-0.298004 -0.118805 2.654902
-0.299924 -0.121046 2.689869
-0.295477 -0.122067 2.720098
-0.288642 -0.123706 2.749020
-0.293936 -0.092177 1.850980
-0.292658 -0.088500 1.870731
-0.296794 -0.080953 1.902628
-0.297793 -0.077339 1.933748
-0.301295 -0.074796 1.963815
-0.292539 -0.081260 1.993628
-0.300637 -0.066017 2.031373
-0.306025 -0.067883 2.062293
-0.302539 -0.074250 2.081699
-0.283765 -0.093176 2.117647
-0.284216 -0.094010 2.186275
-0.285729 -0.062071 1.970588
-0.288989 -0.059286 2.032680
-0.293120 -0.058499 2.054902
-0.298519 -0.056078 2.091690
-0.299471 -0.052502 2.126716
-0.298654 -0.048679 2.152288
-0.297785 -0.044621 2.187451
-0.298063 -0.041782 2.218954
-0.297623 -0.038790 2.249183
-0.301189 -0.037263 2.281863
-0.304825 -0.035570 2.313726
-0.306506 -0.033926 2.339706
-0.310573 -0.033065 2.361765
-0.285625 -0.030066 2.312745
-0.289260 -0.028338 2.337500
-0.298967 -0.028234 2.372745
-0.298422 -0.025360 2.404813
-0.295624 -0.021705 2.439216
-0.299006 -0.019575 2.471192
-0.298119 -0.016277 2.505392
-0.301364 -0.014430 2.532549
-0.297245 -0.010491 2.560392
-0.298560 -0.007231 2.597899
-0.303499 -0.005266 2.631373
-0.306931 -0.003412 2.655742
-0.285931 0.000000 2.635294
-0.290524 0.001778 2.665359
-0.298902 0.002694 2.688889
-0.299060 0.006582 2.720915
-0.298823 0.014052 2.754216
-0.298262 0.017190 2.782930
-0.297868 0.020363 2.808456
-0.300739 0.028585 2.844818
-0.289977 0.035892 2.854902
-0.299645 0.048067 2.871578
-0.299496 0.077755 2.879792
-0.299434 0.109407 2.879225
-0.314471 0.157235 2.858824
-0.298832 0.140794 2.873424
-0.304465 0.177604 2.858824
-0.298187 0.171907 2.870640
-0.295598 0.197495 2.875507
-0.299945 0.210361 2.910084
-0.303760 0.215565 2.939543
-0.310882 0.216137 2.960784
-0.283202 0.221890 2.919608
-0.290831 0.223827 2.945098
-0.292473 0.228801 2.971429
-0.299756 0.234797 3.005147
-0.302220 0.242716 3.030481
-0.300955 0.244534 3.062185
-0.305612 0.247272 3.097386
-0.309817 0.248942 3.121569
-0.306715 0.278153 2.669412
-0.307562 0.275826 2.684083
-0.304798 0.277152 2.714795
-0.306093 0.274098 2.757647
-0.302830 0.278400 2.778432
-0.304678 0.271569 2.805490
-0.308698 0.275965 2.845098
-0.303867 0.280933 2.866667
-0.309671 0.280729 2.894118
-0.285739 0.254166 3.007843
-0.291106 0.255872 3.038824
-0.295805 0.258438 3.070588
-0.293618 0.259873 3.102941
-0.295457 0.261510 3.122426
-0.296540 0.275215 3.158823
-0.309644 0.276654 3.192157
-0.305118 0.282635 3.211765
-0.294471 0.287524 2.672157
-0.295203 0.291148 2.688155
-0.298397 0.302517 2.721357
-0.303577 0.304488 2.745970
-0.291443 0.292369 2.780066
-0.296432 0.290094 2.816422
-0.295530 0.290952 2.852549
-0.297781 0.296540 2.871149
-0.297441 0.302279 2.906536
-0.302172 0.298511 2.940932
-0.303419 0.303419 2.971460
-0.304499 0.305629 3.003677
-0.302198 0.307089 3.029412
-0.304840 0.307291 3.072941
-0.305736 0.310392 3.103922
-0.302224 0.313125 3.115686
-0.305101 0.305096 3.161765
-0.295718 0.292522 3.193333
-0.299402 0.291447 3.230015
-0.301401 0.304662 3.257013
-0.301302 0.307984 3.273529
-0.289400 0.320527 2.730196
-0.296456 0.323826 2.752213
-0.301988 0.337614 2.776570
-0.287339 0.316808 2.947059
-0.290303 0.318586 2.977451
-0.291356 0.320440 3.008824
-0.292981 0.323268 3.030719
-0.287805 0.316893 3.061765
-0.287755 0.320240 3.094118
-0.291390 0.322739 3.133333
-0.295312 0.322170 3.158497
-0.297298 0.323446 3.193761
-0.298577 0.323646 3.226546
-0.295151 0.322067 3.255425
-0.288070 0.319171 3.273529
-0.299147 0.361854 2.781699
-0.299340 0.393289 2.781775
-0.298658 0.424817 2.780508
-0.298817 0.455259 2.778385
-0.298533 0.482181 2.778555
-0.263197 -0.348781 2.574020
-0.267793 -0.361146 2.600601
-0.270753 -0.368259 2.611765
-0.251843 -0.319647 2.421569
-0.268227 -0.319427 2.438375
-0.265797 -0.326377 2.472549
-0.265018 -0.332652 2.504248
-0.268685 -0.337848 2.532549
-0.270517 -0.343248 2.558824
-0.254153 -0.285365 2.229412
-0.263586 -0.287252 2.252941
-0.265940 -0.288390 2.279739
-0.266669 -0.291695 2.311587
-0.265709 -0.293824 2.342811
-0.265961 -0.298142 2.377516
-0.268662 -0.301903 2.405075
-0.263786 -0.292179 2.438503
-0.265725 -0.292194 2.463235
-0.280949 -0.283435 2.486274
-0.252000 -0.285000 3.000000
-0.260803 -0.285060 3.032549
-0.275652 -0.284835 3.062745
-0.265653 -0.285750 3.089216
-0.267224 -0.284420 3.125490
-0.269435 -0.286282 3.157516
-0.269696 -0.288845 3.191667
-0.261365 -0.289089 3.230065
-0.267450 -0.289607 3.254044
-0.274894 -0.291257 3.272549
-0.269218 -0.257525 2.091961
-0.267657 -0.263124 2.124370
-0.270813 -0.267020 2.153431
-0.260275 -0.267331 2.185185
-0.269061 -0.271605 2.217320
-0.269047 -0.270757 2.247488
-0.268342 -0.271764 2.277059
-0.267837 -0.268618 2.312418
-0.260375 -0.265843 2.343954
-0.266998 -0.265029 2.373366
-0.268814 -0.264839 2.406344
-0.273363 -0.268212 2.433442
-0.272644 -0.279638 2.463726
-0.281392 -0.281392 2.490196
-0.268869 -0.253082 2.631699
-0.262766 -0.256152 2.654412
-0.269938 -0.258040 2.699216
-0.264758 -0.260972 2.718432
-0.269522 -0.261817 2.750196
-0.271285 -0.264322 2.782353
-0.268509 -0.268104 2.817927
-0.262700 -0.271231 2.845098
-0.263999 -0.273359 2.877451
-0.266895 -0.274141 2.900981
-0.262895 -0.276882 2.945588
-0.266826 -0.276104 2.968873
-0.266273 -0.277273 2.999346
-0.269920 -0.277995 3.032680
-0.263780 -0.280643 3.067157
-0.264579 -0.258976 3.098039
-0.267892 -0.262253 3.129412
-0.263869 -0.262309 3.160294
-0.269475 -0.265656 3.192941
-0.269146 -0.276023 3.229156
-0.267026 -0.278832 3.245633
-0.252486 -0.220925 1.972549
-0.254996 -0.225114 1.992157
-0.269160 -0.224758 2.033987
-0.281963 -0.225167 2.065686
-0.281663 -0.233318 2.101961
-0.270901 -0.236874 2.124510
-0.268970 -0.244791 2.151961
-0.267350 -0.247594 2.191177
-0.253107 -0.243964 2.283193
-0.255844 -0.239647 2.314161
-0.257654 -0.242161 2.339706
-0.260111 -0.242236 2.373333
-0.265294 -0.242357 2.404978
-0.269459 -0.243001 2.439367
-0.271616 -0.243391 2.469188
-0.267490 -0.243521 2.497647
-0.271497 -0.244276 2.531373
-0.269051 -0.247831 2.562465
-0.267347 -0.250023 2.595425
-0.280298 -0.251482 2.619608
-0.259229 -0.220931 2.945752
-0.262511 -0.224947 2.974510
-0.267755 -0.228345 2.998880
-0.267936 -0.237956 3.040018
-0.267971 -0.242596 3.059400
-0.275826 -0.249468 3.099020
-0.258259 -0.213163 1.932026
-0.263106 -0.215726 1.961111
-0.277182 -0.215365 1.994118
-0.265345 -0.192197 2.855505
-0.264827 -0.199598 2.873450
-0.267924 -0.209916 2.908715
-0.270008 -0.216387 2.941830
-0.275535 -0.219243 2.962745
-0.255662 -0.159265 2.794118
-0.268089 -0.163805 2.820999
-0.268257 -0.177906 2.844229
-0.254784 -0.186078 2.862745
-0.265600 -0.130033 2.766667
-0.265108 -0.136566 2.784998
-0.269931 -0.149082 2.809395
-0.279467 -0.101333 2.133333
-0.268010 -0.097224 2.150980
-0.275910 -0.099636 2.189706
-0.275115 -0.100544 2.209804
-0.271238 -0.098071 2.241667
-0.267046 -0.097635 2.315360
-0.267284 -0.100084 2.354902
-0.267000 -0.100420 2.362745
-0.269641 -0.100284 2.401961
-0.271350 -0.099111 2.437255
-0.271267 -0.099471 2.471569
-0.269137 -0.104667 2.492157
-0.270212 -0.106067 2.525490
-0.271012 -0.107384 2.556863
-0.273597 -0.109311 2.587255
-0.268913 -0.109997 2.626716
-0.265453 -0.111185 2.660000
-0.266298 -0.113314 2.689951
-0.263066 -0.115470 2.723333
-0.266894 -0.119694 2.751541
-0.264802 -0.123997 2.773587
-0.265500 -0.076765 1.852941
-0.267669 -0.077853 1.870880
-0.267677 -0.071761 1.903422
-0.273514 -0.072844 1.931597
-0.271480 -0.078692 1.967270
-0.268733 -0.085915 1.998039
-0.267497 -0.085788 2.028571
-0.270417 -0.087169 2.058824
-0.265229 -0.085491 2.085098
-0.262544 -0.087170 2.125980
-0.262706 -0.088686 2.151416
-0.263293 -0.086308 2.184804
-0.263076 -0.090278 2.215686
-0.264133 -0.090588 2.242353
-0.263288 -0.087763 2.279412
-0.266582 -0.089376 2.311765
-0.271518 -0.092841 2.340523
-0.261562 -0.090087 2.370588
-0.264511 -0.091376 2.404575
-0.259344 -0.090105 2.435294
-0.261970 -0.091672 2.468067
-0.253888 -0.059963 1.913725
-0.262771 -0.057977 1.934804
-0.266321 -0.057323 1.962063
-0.263818 -0.052044 2.001569
-0.266365 -0.050085 2.037092
-0.268558 -0.048732 2.055724
-0.266736 -0.043736 2.094464
-0.266457 -0.040406 2.120950
-0.268449 -0.037772 2.154510
-0.269747 -0.035501 2.181818
-0.275649 -0.034637 2.211111
-0.279765 -0.032335 2.256209
-0.254018 -0.030525 2.180392
-0.262006 -0.029973 2.220343
-0.264852 -0.028508 2.250980
-0.264958 -0.026310 2.278610
-0.265583 -0.024120 2.309368
-0.268111 -0.021767 2.344538
-0.265564 -0.018333 2.377311
-0.270525 -0.017640 2.405882
-0.265726 -0.013407 2.437745
-0.268492 -0.011360 2.470000
-0.266874 -0.007997 2.501373
-0.269376 -0.005604 2.532773
-0.274839 -0.003851 2.568628
-0.278661 -0.002592 2.592157
-0.256870 0.000514 2.563529
-0.264549 0.001950 2.596814
-0.266428 0.004299 2.626025
-0.266525 0.007993 2.663072
-0.268724 0.011221 2.691830
-0.267937 0.015158 2.720168
-0.266858 0.020932 2.753072
-0.270492 0.025048 2.782941
-0.269284 0.028496 2.814216
-0.258041 0.034175 2.789706
-0.264498 0.035170 2.813725
-0.267760 0.038593 2.846732
-0.268343 0.051285 2.875138
-0.268382 0.077583 2.882438
-0.259988 0.082000 2.894118
-0.268573 0.109832 2.881069
-0.257335 0.106600 2.894118
-0.267805 0.141103 2.879647
-0.267441 0.172546 2.875822
-0.281594 0.197259 2.858824
-0.266816 0.203694 2.874797
-0.258968 0.223889 2.882680
-0.265895 0.229308 2.910504
-0.268406 0.234608 2.937255
-0.263992 0.243514 2.969608
-0.275342 0.243829 3.000980
-0.276876 0.248568 3.031373
-0.261935 0.259691 3.010784
-0.266107 0.264483 3.034691
-0.267812 0.267991 3.060662
-0.268564 0.270328 3.094538
-0.267866 0.274121 3.127731
-0.264598 0.277201 3.150000
-0.269904 0.304096 2.689341
-0.269137 0.304327 2.718627
-0.266505 0.305698 2.750980
-0.272236 0.300709 2.787364
-0.266909 0.299893 2.812300
-0.268461 0.306493 2.844608
-0.272007 0.307759 2.881569
-0.276379 0.309361 2.932353
-0.282392 0.309145 2.972549
-0.256161 0.283937 3.086275
-0.262481 0.287488 3.124837
-0.268501 0.291563 3.158823
-0.264196 0.300907 3.192647
-0.267759 0.306131 3.226144
-0.274086 0.310783 3.251821
-0.278167 0.314165 3.272549
-0.258745 0.317830 2.698039
-0.266725 0.324311 2.722460
-0.268859 0.336489 2.752451
-0.269453 0.333803 2.778105
-0.258213 0.318895 2.822059
-0.267624 0.316024 2.847059
-0.263513 0.323268 2.879902
-0.265019 0.323624 2.912255
-0.266025 0.326529 2.941737
-0.264305 0.328061 2.973421
-0.266702 0.331545 3.007231
-0.265845 0.337174 3.034902
-0.269858 0.327951 3.057843
-0.267356 0.334655 3.098600
-0.268072 0.337608 3.131765
-0.272123 0.337400 3.158170
-0.272785 0.339563 3.196732
-0.272177 0.340317 3.227451
-0.268796 0.330642 3.259037
-0.264819 0.330506 3.275666
-0.251647 0.347382 2.735294
-0.256956 0.351076 2.760000
-0.269028 0.364137 2.784941
-0.255459 0.349735 3.041177
-0.254118 0.348235 3.137255
-0.254603 0.349481 3.162745
-0.255366 0.351139 3.192157
-0.256695 0.351178 3.226051
-0.256406 0.348271 3.254902
-0.267478 0.392858 2.786226
-0.267376 0.424790 2.786274
-0.268098 0.456789 2.785590
-0.267253 0.483100 2.784626
-0.222010 -0.347604 2.537255
-0.236020 -0.352143 2.565428
-0.236967 -0.364823 2.600627
-0.240282 -0.370871 2.611765
-0.232829 -0.316788 2.381863
-0.233390 -0.322888 2.418628
-0.235608 -0.326575 2.441667
-0.233479 -0.332294 2.470588
-0.236536 -0.337896 2.502941
-0.238852 -0.342917 2.529412
-0.237085 -0.286931 2.215686
-0.232738 -0.289547 2.252288
-0.232269 -0.291241 2.280392
-0.238923 -0.293705 2.310784
-0.232417 -0.299701 2.342717
-0.237285 -0.301361 2.372969
-0.238538 -0.304469 2.401525
-0.242031 -0.304586 2.429412
-0.228035 -0.283582 2.923529
-0.231055 -0.285135 2.949673
-0.233338 -0.285724 2.966013
-0.232467 -0.286166 3.004412
-0.236369 -0.288177 3.033497
-0.229793 -0.286455 3.063725
-0.239684 -0.287205 3.099346
-0.239692 -0.289834 3.133333
-0.235660 -0.292599 3.163235
-0.232775 -0.295104 3.196078
-0.234911 -0.289816 3.229582
-0.234589 -0.290872 3.247432
-0.238733 -0.266742 2.100327
-0.233312 -0.266769 2.118954
-0.234824 -0.273687 2.157108
-0.236273 -0.269738 2.195343
-0.232699 -0.273884 2.214118
-0.235158 -0.270629 2.250267
-0.230291 -0.262311 2.278947
-0.238824 -0.264945 2.311961
-0.234093 -0.270255 2.340959
-0.237847 -0.277594 2.376292
-0.244342 -0.277865 2.395425
-0.224052 -0.252847 2.503431
-0.237298 -0.252486 2.533333
-0.234106 -0.255942 2.567974
-0.238217 -0.257151 2.597479
-0.232942 -0.260842 2.629412
-0.240042 -0.261267 2.652451
-0.238635 -0.264446 2.687451
-0.232638 -0.268978 2.726144
-0.236408 -0.270374 2.754249
-0.238214 -0.272010 2.783754
-0.237081 -0.274247 2.815686
-0.227775 -0.277436 2.838235
-0.239298 -0.278109 2.874510
-0.240598 -0.280128 2.905882
-0.235799 -0.278539 2.947549
-0.243497 -0.277164 2.969608
-0.238960 -0.280937 2.999346
-0.229455 -0.257969 3.035294
-0.233376 -0.255435 3.062745
-0.233890 -0.260238 3.098039
-0.234749 -0.264476 3.129902
-0.235606 -0.268838 3.162745
-0.238044 -0.273180 3.195098
-0.234211 -0.279381 3.227171
-0.243561 -0.281880 3.247451
-0.220173 -0.220173 1.898039
-0.223582 -0.224227 1.927451
-0.239392 -0.224657 1.970588
-0.241185 -0.229147 1.999608
-0.240202 -0.234166 2.018628
-0.233179 -0.240940 2.068137
-0.242800 -0.240712 2.093137
-0.237543 -0.247125 2.130392
-0.237453 -0.248149 2.139216
-0.223500 -0.237744 2.191176
-0.226284 -0.241676 2.217186
-0.231143 -0.242219 2.249290
-0.233738 -0.242701 2.278889
-0.236241 -0.243440 2.311910
-0.236691 -0.242895 2.342455
-0.235505 -0.242294 2.370850
-0.233617 -0.243631 2.402288
-0.232107 -0.246142 2.439052
-0.237938 -0.246330 2.468235
-0.241298 -0.248308 2.498039
-0.247890 -0.249143 2.529412
-0.250765 -0.250765 2.558824
-0.226128 -0.221755 2.911438
-0.234606 -0.226014 2.938160
-0.235447 -0.233057 2.976471
-0.234877 -0.237880 3.003529
-0.237746 -0.245342 3.038235
-0.237966 -0.248227 3.056443
-0.224941 -0.215569 1.874510
-0.236415 -0.217042 1.908684
-0.238761 -0.219506 1.925490
-0.234633 -0.197134 2.856096
-0.235275 -0.207270 2.873579
-0.241941 -0.216871 2.906128
-0.245741 -0.219412 2.925490
-0.246051 -0.160309 2.796079
-0.235720 -0.166610 2.816652
-0.236461 -0.182645 2.845795
-0.231260 -0.131405 2.764706
-0.236122 -0.141165 2.781730
-0.240049 -0.153957 2.804314
-0.246949 -0.094980 2.374510
-0.247402 -0.096078 2.401961
-0.242929 -0.095959 2.429412
-0.243625 -0.097203 2.460784
-0.238903 -0.097561 2.501471
-0.241210 -0.099397 2.532353
-0.230773 -0.098291 2.564052
-0.241375 -0.102088 2.595425
-0.230768 -0.101453 2.628235
-0.236690 -0.104478 2.659384
-0.231405 -0.105635 2.685621
-0.235942 -0.109814 2.721008
-0.235833 -0.116016 2.754600
-0.233358 -0.121826 2.771009
-0.239029 -0.066706 1.852941
-0.239581 -0.067402 1.870650
-0.238049 -0.070005 1.900923
-0.235438 -0.071922 1.935294
-0.237136 -0.073369 1.965359
-0.236721 -0.073851 1.996079
-0.235411 -0.074249 2.027206
-0.234232 -0.074654 2.054902
-0.235810 -0.077449 2.093137
-0.237150 -0.082059 2.128105
-0.231998 -0.082277 2.152505
-0.234402 -0.081366 2.186275
-0.234741 -0.083224 2.219608
-0.231787 -0.083343 2.245098
-0.239787 -0.086784 2.283754
-0.230764 -0.085286 2.315360
-0.241592 -0.088936 2.340196
-0.236257 -0.086951 2.378431
-0.232881 -0.085935 2.409150
-0.230218 -0.085273 2.436275
-0.237254 -0.086955 2.464146
-0.228040 -0.059360 1.872106
-0.236051 -0.055619 1.900894
-0.235208 -0.048987 1.934088
-0.236714 -0.046047 1.961147
-0.230822 -0.039304 2.002696
-0.238348 -0.040522 2.025952
-0.236786 -0.038341 2.058101
-0.238915 -0.034702 2.092647
-0.244901 -0.033499 2.120392
-0.248604 -0.032147 2.143137
-0.223412 -0.031029 2.068627
-0.225402 -0.029399 2.100000
-0.230263 -0.028339 2.125490
-0.234918 -0.027334 2.153695
-0.232637 -0.024003 2.182353
-0.236407 -0.022370 2.216934
-0.235571 -0.019732 2.248366
-0.238009 -0.018026 2.281961
-0.236639 -0.015145 2.313726
-0.236930 -0.012901 2.345833
-0.235314 -0.010273 2.371678
-0.236447 -0.007824 2.408660
-0.239408 -0.006089 2.436765
-0.240953 -0.004113 2.466994
-0.246344 -0.003117 2.494608
-0.225343 0.000000 2.462745
-0.230891 0.001248 2.496078
-0.234351 0.003594 2.533660
-0.238082 0.006130 2.568627
-0.232613 0.009944 2.594118
-0.236022 0.012385 2.626611
-0.237541 0.015709 2.658110
-0.234926 0.019848 2.694831
-0.235627 0.023408 2.721046
-0.237683 0.027544 2.753997
-0.242310 0.029789 2.780392
-0.229794 0.034711 2.786809
-0.237039 0.039546 2.817157
-0.235437 0.045264 2.843990
-0.237987 0.055376 2.878328
-0.239054 0.060198 2.894118
-0.237199 0.080385 2.887655
-0.232349 0.069121 2.897821
-0.236121 0.109384 2.887874
-0.244071 0.123482 2.894118
-0.236989 0.141671 2.882895
-0.233338 0.139099 2.894118
-0.236359 0.172959 2.880689
-0.228635 0.166412 2.894118
-0.235976 0.204321 2.877848
-0.233682 0.229012 2.877175
-0.236557 0.243169 2.907398
-0.243527 0.246455 2.933987
-0.225345 0.256546 2.941961
-0.238021 0.256930 2.971836
-0.234330 0.265229 3.004202
-0.240651 0.274378 3.038431
-0.237809 0.278012 3.063480
-0.240538 0.278964 3.099608
-0.248871 0.281735 3.130392
-0.251100 0.313200 2.700000
-0.251286 0.314108 2.731373
-0.247435 0.309294 2.811765
-0.246329 0.314282 2.831373
-0.238737 0.285469 3.047712
-0.231461 0.289774 3.069118
-0.229330 0.291812 3.096655
-0.235416 0.293186 3.127843
-0.239167 0.306561 3.164986
-0.241464 0.313043 3.205229
-0.240808 0.326525 2.698510
-0.236186 0.332065 2.717005
-0.237051 0.332150 2.749020
-0.237805 0.329037 2.781373
-0.236048 0.332063 2.814216
-0.235829 0.330159 2.844118
-0.236525 0.330550 2.876320
-0.239369 0.333146 2.912157
-0.236492 0.342400 2.941569
-0.241790 0.338526 2.975980
-0.247769 0.338416 3.021569
-0.246555 0.344555 3.062745
-0.226839 0.317919 3.195098
-0.232816 0.321797 3.227171
-0.238814 0.330381 3.257379
-0.238211 0.338713 3.279190
-0.230920 0.352798 2.732745
-0.234187 0.359737 2.755773
-0.241982 0.368881 2.779351
-0.220235 0.347294 2.823529
-0.224143 0.346145 2.837255
-0.224116 0.350524 2.873203
-0.228345 0.350091 2.912549
-0.227725 0.351909 2.944771
-0.235605 0.354601 2.975817
-0.234080 0.355133 3.009586
-0.235575 0.359419 3.029902
-0.229944 0.357138 3.065686
-0.234682 0.357311 3.099440
-0.239972 0.356404 3.126471
-0.234048 0.363842 3.158431
-0.235325 0.366206 3.199644
-0.236678 0.365668 3.230327
-0.235245 0.361374 3.259046
-0.230597 0.353504 3.278728
-0.236684 0.393489 2.786146
-0.221200 0.403200 2.800000
-0.236455 0.424586 2.788250
-0.228550 0.429450 2.800000
-0.235749 0.456270 2.789942
-0.235322 0.483075 2.789294
-0.229600 0.491400 2.800000
-0.203493 -0.349978 2.533007
-0.204491 -0.357750 2.567825
-0.206384 -0.367239 2.597882
-0.202370 -0.314621 2.339216
-0.204869 -0.319991 2.373203
-0.202330 -0.323456 2.408684
-0.204950 -0.331872 2.440196
-0.206279 -0.337190 2.470262
-0.200081 -0.343885 2.500980
-0.215512 -0.345321 2.520588
-0.205100 -0.283883 2.158824
-0.200818 -0.287046 2.182843
-0.204708 -0.288985 2.217320
-0.205619 -0.288575 2.249366
-0.205639 -0.295178 2.279412
-0.206683 -0.298390 2.311896
-0.207800 -0.303368 2.339543
-0.204307 -0.309254 2.372767
-0.210149 -0.313011 2.401634
-0.201173 -0.284538 2.874118
-0.204615 -0.286018 2.906667
-0.201842 -0.288438 2.935784
-0.203162 -0.286924 2.970196
-0.201795 -0.291179 3.004412
-0.205963 -0.291532 3.028922
-0.202012 -0.290775 3.060784
-0.206081 -0.292742 3.094510
-0.204440 -0.295081 3.125882
-0.207160 -0.297298 3.162745
-0.204950 -0.299032 3.189706
-0.204473 -0.295604 3.229596
-0.204751 -0.292233 3.250082
-0.200747 -0.268447 2.097199
